# .PCD v0.7 - Point Cloud Data file format
VERSION 0.7
FIELDS x y z
SIZE 4 4 4
TYPE F F F
COUNT 1 1 1
WIDTH 1155
HEIGHT 1
VIEWPOINT 0 0 0 1 0 0 0
POINTS 1155
DATA ascii
-0.25171968 0.046001457 0.41615894
-0.24669072 0.045675211 0.41856709
-0.25157371 0.054994933 0.41655421
-0.24600005 0.054539867 0.41878319
-0.25176165 0.065004133 0.4156253
-0.24657908 0.065158069 0.41779384
-0.25203148 0.072055541 0.41728127
-0.24532539 0.07249891 0.41885737
-0.25612205 -0.062290158 0.42360002
-0.24453017 -0.062199429 0.42658919
-0.23927669 -0.06307216 0.42804
-0.25484067 -0.056710284 0.4227857
-0.24430944 -0.054696027 0.42668825
-0.23771428 -0.054213729 0.42900023
-0.25450453 -0.043835673 0.42424753
-0.24482372 -0.045070324 0.42717499
-0.23674817 -0.046746671 0.42868766
-0.26026666 -0.034973335 0.42700002
-0.25463322 -0.037176788 0.42641398
-0.2448165 -0.037505999 0.42818612
-0.2304343 0.018934287 0.42300001
-0.22411455 0.017018983 0.42636481
-0.2169514 0.018155692 0.42778268
-0.23050833 0.023464762 0.42271432
-0.22518854 0.02493722 0.42385936
-0.21515232 0.024990434 0.42747399
-0.20893714 0.026651429 0.42899996
-0.2222423 0.032744948 0.42628574
-0.21464196 0.034782089 0.42757154
-0.20806225 0.035711352 0.42899993
-0.24161138 0.046385445 0.42044014
-0.23618321 0.045951847 0.42177042
-0.22489035 0.045322154 0.42488459
-0.21612069 0.044161603 0.42821512
-0.20767103 0.04079878 0.42899996
-0.2420598 0.055743691 0.42029274
-0.23326978 0.055087596 0.42225993
-0.22520666 0.054923877 0.42576334
-0.21703988 0.055636279 0.42853561
-0.24259856 0.062849708 0.42005271
-0.23305671 0.065191507 0.42296895
-0.22503237 0.065120064 0.42585722
-0.21668419 0.064699486 0.42858583
-0.25040001 0.0744 0.42000002
-0.24236263 0.074138232 0.42110014
-0.23478082 0.072947159 0.42273098
-0.22451615 0.074311599 0.42601228
-0.21782669 0.074342743 0.42883101
-0.22226286 0.080080003 0.42899999
-0.21940288 0.080080003 0.42900002
-0.23403464 -0.063049413 0.43139976
-0.22490309 -0.063410223 0.43494698
-0.21507818 -0.06346444 0.43765089
-0.20945717 -0.062096328 0.43885723
-0.23319818 -0.055409513 0.43135747
-0.22470902 -0.055043336 0.43453559
-0.21515423 -0.055094015 0.43714494
-0.23333278 -0.043999854 0.43091929
-0.22459547 -0.045070354 0.43417615
-0.21634914 -0.045417022 0.43690762
-0.25203267 -0.034048982 0.43000007
-0.24334747 -0.033480931 0.43212768
-0.23494966 -0.035028502 0.43335658
-0.22482336 -0.035123099 0.43544376
-0.21540576 -0.035266414 0.43769491
-0.20952545 -0.03368653 0.43900007
-0.24155247 -0.028116744 0.4357917
-0.23564504 -0.028565716 0.43699995
-0.22642134 -0.028530443 0.43806455
-0.22501472 0.013402598 0.43000001
-0.21410002 0.01515724 0.43110782
-0.20500548 0.016175227 0.43434733
-0.19521345 0.016342085 0.43700013
-0.18937835 0.018759999 0.43774998
-0.21119729 0.021061225 0.43000007
-0.20482005 0.024922216 0.4314051
-0.19501351 0.025146807 0.43376309
-0.18583642 0.025388664 0.43706539
-0.20387964 0.034525048 0.43070835
-0.19504718 0.035083324 0.43306547
-0.1870648 0.035759099 0.43572074
-0.2123684 0.046745986 0.43042114
-0.20453921 0.04529351 0.43170387
-0.195181 0.045006823 0.43425754
-0.1851584 0.044929385 0.43651041
-0.17894174 0.04430604 0.43776667
-0.21220747 0.05457443 0.43041977
-0.20488061 0.05475013 0.431943
-0.19512916 0.055138905 0.43508977
-0.18591589 0.055053942 0.43770066
-0.21168187 0.065296844 0.43035945
-0.20483458 0.064946741 0.43223161
-0.19502252 0.065065295 0.4352223
-0.18610795 0.064813368 0.43780491
-0.21313244 0.075297713 0.43059227
-0.20476958 0.074912623 0.4327113
-0.19506523 0.075123802 0.43579519
-0.18623 0.07459601 0.43792841
-0.23123781 0.083645552 0.43599993
-0.22543107 0.084339499 0.43503228
-0.21512508 0.08146131 0.43120512
-0.20436235 0.082795963 0.4341332
-0.19519034 0.083435386 0.43678808
-0.18722898 0.083446026 0.43795231
-0.15254572 -0.070931733 0.44866669
-0.14846933 -0.071611941 0.449
-0.21099049 -0.065685719 0.44000003
-0.20442331 -0.063672356 0.44189259
-0.1952907 -0.064090654 0.44440913
-0.18522288 -0.064695694 0.44737759
-0.1791949 -0.064412944 0.449
-0.15256527 -0.068370871 0.44835293
-0.14938161 -0.068989217 0.44900006
-0.21102279 -0.054884993 0.44038093
-0.20493878 -0.055006225 0.44103289
-0.1949475 -0.054855838 0.44398117
-0.18499748 -0.055022325 0.44741121
-0.17843381 -0.055085104 0.44900003
-0.21140389 -0.044237837 0.43999982
-0.20486869 -0.044920329 0.44081435
-0.19514515 -0.045207806 0.44385552
-0.1848406 -0.044815257 0.44702557
-0.17795163 -0.044422906 0.44896421
-0.2208381 -0.03017143 0.44000003
-0.21281637 -0.03382314 0.43999991
-0.20478348 -0.034883171 0.44070202
-0.19531283 -0.035053924 0.44374061
-0.18500924 -0.03507356 0.44627923
-0.17678671 -0.035213962 0.4489024
-0.23294172 -0.025614029 0.44295454
-0.2236101 -0.027097048 0.4404864
-0.21453588 -0.02532715 0.44303209
-0.20502368 -0.025101416 0.44483998
-0.19519271 -0.025493506 0.44629008
-0.18535243 -0.026909569 0.44771579
-0.17741279 -0.028730744 0.4489201
-0.21365523 -0.019539049 0.44600001
-0.2054904 -0.019514978 0.44900003
-0.19713239 -0.019670477 0.44900003
-0.19089234 0.014118681 0.44000003
-0.18458536 0.015786294 0.44086233
-0.17505322 0.016118679 0.44426271
-0.16531342 0.015627079 0.4474926
-0.15941639 0.019157333 0.44900003
-0.18228191 0.021900434 0.44040531
-0.17514697 0.023551114 0.44311041
-0.16474278 0.024893532 0.44583985
-0.15689434 0.026748395 0.44841325
-0.14966667 0.029505715 0.44900003
-0.16279112 0.034539804 0.44352236
-0.1550191 0.035161328 0.44640496
-0.14681496 0.035938468 0.44863877
-0.18060954 0.049447622 0.44000003
-0.17430872 0.048479393 0.44048774
-0.16409576 0.045750786 0.44270122
-0.15502778 0.044792067 0.44550627
-0.14569631 0.044961024 0.44851571
-0.18114498 0.054499466 0.43999982
-0.17476287 0.055035323 0.44112235
-0.16508541 0.055089016 0.4441902
-0.15510304 0.055028751 0.44699329
-0.1471806 0.053542115 0.44861418
-0.18172678 0.065430559 0.4400222
-0.17490371 0.065088451 0.44132531
-0.1651036 0.064860843 0.44471785
-0.15521649 0.065140449 0.44767967
-0.14928184 0.065382965 0.44900003
-0.18141796 0.075787775 0.4400464
-0.1749462 0.075236179 0.44173476
-0.16516317 0.074967206 0.44527742
-0.1550298 0.075055599 0.44784695
-0.14952414 0.071554922 0.44900006
-0.2278465 0.089120768 0.44140002
-0.20229474 0.089109257 0.44464296
-0.19567892 0.08866927 0.44485721
-0.18314432 0.084816828 0.44135302
-0.17510478 0.085144162 0.44247276
-0.16499452 0.084893055 0.4454264
-0.15497375 0.084927224 0.44818932
-0.14966667 0.083385721 0.44900003
-0.23036 0.092397146 0.44300002
-0.22797342 0.091366351 0.4421905
-0.20283586 0.092996463 0.44661105
-0.1954172 0.092682019 0.44770852
-0.1853976 0.09313412 0.44842687
-0.17487928 0.091264501 0.44600001
-0.16448317 0.091720387 0.44693995
-0.15600747 0.091906071 0.44818187
-0.183603 -0.084635355 0.45072228
-0.17493521 -0.08364369 0.45233324
-0.16487256 -0.083579108 0.45570305
-0.1575418 -0.083009064 0.45822918
-0.16391787 -0.076587893 0.45505881
-0.15707858 -0.076942414 0.45711774
-0.14423369 -0.071576416 0.45151621
-0.13591668 -0.070971891 0.4546667
-0.12970096 -0.070508577 0.45700002
-0.17443296 -0.065104768 0.45104593
-0.1652393 -0.06503544 0.45389333
-0.1552798 -0.064365163 0.4574002
-0.14582148 -0.06718941 0.45368102
-0.13454165 -0.067241594 0.45481718
-0.12638256 -0.066806488 0.45786315
-0.17378163 -0.055137996 0.45109537
-0.16501231 -0.055029046 0.45379221
-0.1551345 -0.054844994 0.45743772
-0.14884716 -0.058577146 0.45900005
-0.17327248 -0.045365613 0.45099014
-0.16526984 -0.044909932 0.45359263
-0.15498087 -0.045069367 0.45688507
-0.14912097 -0.044514604 0.45872226
-0.17208272 -0.0346434 0.45110616
-0.16510628 -0.034960035 0.45337066
-0.15510675 -0.034985796 0.45658213
-0.14824972 -0.034418903 0.45868412
-0.19226201 -0.021193556 0.45061544
-0.18434054 -0.022098059 0.45090395
-0.17466298 -0.024530269 0.45183063
-0.1648867 -0.024861941 0.45440951
-0.15490682 -0.024914121 0.45730951
-0.14849097 -0.025393333 0.45866665
-0.21007238 -0.018510478 0.45200002
-0.20348825 -0.01717151 0.45491302
-0.19383596 -0.017857553 0.45298037
-0.18449715 -0.016248297 0.45581844
-0.17531919 -0.017266337 0.45605823
-0.1657348 -0.017889407 0.45748332
-0.15689321 -0.018504763 0.45882615
-0.16028571 0.01457143 0.45000005
-0.15477414 0.01585431 0.45166403
-0.14503832 0.015928995 0.45559546
-0.13694113 0.01608496 0.45825401
-0.15363596 0.023810728 0.45109531
-0.14509994 0.024991401 0.4543266
-0.13555509 0.02518416 0.45747435
-0.12925287 0.028819524 0.45850003
-0.14309435 0.033637643 0.45165125
-0.13502857 0.035027221 0.45433587
-0.12645201 0.036273587 0.45728743
-0.11910731 0.03873175 0.45866674
-0.14076236 0.045074593 0.45061293
-0.13506469 0.045181509 0.45283654
-0.12500021 0.044905338 0.45617938
-0.11828976 0.04506164 0.45865989
-0.14310479 0.055970445 0.45091152
-0.13485163 0.055071283 0.45268115
-0.12511788 0.054899082 0.45573875
-0.11709051 0.055631533 0.45845583
-0.14428477 0.064944215 0.45159149
-0.13492125 0.06500861 0.45478269
-0.12567234 0.064779051 0.45762736
-0.11886559 0.060806531 0.45885721
-0.15067905 0.078130484 0.45074999
-0.14490013 0.075154088 0.45177168
-0.13478655 0.074987821 0.45502791
-0.12673311 0.074742608 0.45822582
-0.15050796 0.087844454 0.45066673
-0.14468949 0.084910989 0.45188519
-0.13481984 0.085125528 0.45481884
-0.12662688 0.08536683 0.4578318
-0.18348852 0.09627112 0.4512668
-0.17517936 0.096010908 0.45226866
-0.16548224 0.097452469 0.45643878
-0.15524933 0.096346498 0.45598006
-0.14459167 0.092859663 0.45302427
-0.13457595 0.094162241 0.45584002
-0.12627602 0.093781613 0.45815483
-0.16303058 0.10457572 0.45565569
-0.1564341 0.10517648 0.4556798
-0.1621201 0.11131479 0.45247373
-0.15585274 0.11233016 0.45654348
-0.13087332 -0.090226665 0.46900001
-0.15312397 -0.084757544 0.46052164
-0.14493501 -0.084362797 0.46341023
-0.135059 -0.084777974 0.46741644
-0.12953334 -0.081888899 0.46900004
-0.15228353 -0.077883482 0.46100008
-0.1446503 -0.077044748 0.46255267
-0.13472486 -0.076164491 0.46602789
-0.12711059 -0.074485645 0.46787509
-0.1442299 -0.063745908 0.4616667
-0.13523099 -0.0625365 0.46423176
-0.12395158 -0.063516997 0.46404901
-0.11555741 -0.063911967 0.46347162
-0.10504502 -0.062914319 0.46569496
-0.096739039 -0.062200528 0.46734998
-0.14460127 -0.054866649 0.46132857
-0.13501476 -0.054976504 0.46452621
-0.12634392 -0.055298753 0.46804798
-0.11300096 -0.05915381 0.46525002
-0.1041739 -0.059094865 0.46690002
-0.096383274 -0.05911056 0.46834785
-0.14443618 -0.045026008 0.46135381
-0.13493811 -0.045129057 0.46456832
-0.12612003 -0.044740614 0.46800852
-0.14367218 -0.035480645 0.46129003
-0.13498957 -0.034961082 0.46434256
-0.1261944 -0.034530502 0.46783334
-0.14395852 -0.024881206 0.46126416
-0.13490859 -0.024902843 0.46401516
-0.12571788 -0.024803922 0.46777937
-0.19437592 -0.012848823 0.46528947
-0.18793754 -0.011742055 0.463
-0.17531714 -0.01364646 0.46160868
-0.16419488 -0.01336714 0.46215862
-0.15446906 -0.014489549 0.46176952
-0.14507549 -0.015038205 0.46364692
-0.13523455 -0.015200548 0.46604645
-0.12589566 -0.016853796 0.46812201
-0.11970667 -0.018313333 0.46900001
-0.19321831 -0.0074274102 0.46587807
-0.18802658 -0.0062645166 0.46612963
-0.16273209 -0.00931127 0.46558341
-0.15305109 -0.0083096717 0.46873072
-0.14511959 -0.0082496768 0.46776
-0.13753061 -0.0098236743 0.4688572
-0.13245036 0.015151694 0.46044669
-0.12516102 0.015897492 0.46331069
-0.11517302 0.015602401 0.46710038
-0.10905927 0.016482934 0.4688333
-0.13129978 0.022184169 0.46012503
-0.12495819 0.024807004 0.46197236
-0.11516249 0.025009187 0.46575534
-0.10760903 0.025552034 0.46842635
-0.12324819 0.033082753 0.46090746
-0.11478017 0.034814965 0.46395305
-0.10579156 0.035556711 0.46737483
-0.099613339 0.038953654 0.46833336
-0.11352892 0.044879459 0.46108326
-0.10490957 0.045033731 0.46419746
-0.095844738 0.045887206 0.46783471
-0.089333333 0.048686668 0.46900001
-0.11287072 0.054399189 0.46053725
-0.10507917 0.054969624 0.4630996
-0.094747372 0.055161152 0.46709055
-0.088248789 0.055720098 0.46875677
-0.12115018 0.066657864 0.46000001
-0.11483118 0.065280221 0.46141326
-0.10515694 0.065022416 0.46427986
-0.09526173 0.064691775 0.46749961
-0.088139407 0.062756822 0.46876192
-0.071701795 0.066041961 0.46754053
-0.065537378 0.066001214 0.46825281
-0.058662225 0.06491556 0.46900001
-0.12174992 0.075561792 0.46027759
-0.11484598 0.074808024 0.46204576
-0.10515324 0.074953802 0.46592352
-0.09670487 0.074849814 0.46836668
-0.071009532 0.070121907 0.46600002
-0.06262973 0.075822502 0.4676052
-0.050473332 0.072806671 0.46900001
-0.049133334 0.072360002 0.46900001
-0.12184533 0.084421232 0.46027437
-0.1149081 0.084972717 0.46229205
-0.10506705 0.084944323 0.46601412
-0.096487015 0.085250318 0.46862388
-0.062905714 0.081084415 0.46843746
-0.15207367 0.098107055 0.46070004
-0.14573686 0.09879753 0.46199998
-0.13890001 0.099655248 0.46300003
-0.12256003 0.096360713 0.46031368
-0.11504201 0.095088482 0.46256185
-0.10514554 0.094948433 0.46586347
-0.097256161 0.094210021 0.46838978
-0.15298234 0.10320412 0.46158981
-0.14470156 0.10236607 0.46281666
-0.13524376 0.10454764 0.46696115
-0.1251516 0.10318193 0.46610644
-0.11497646 0.1013849 0.46305135
-0.10492387 0.10253489 0.46740001
-0.098856911 0.10108905 0.46862504
-0.15434249 0.11049601 0.46040002
-0.13531886 0.11089372 0.46800002
-0.12222753 0.11397463 0.46812835
-0.11789697 0.1155508 0.46836966
-0.11864509 0.12042858 0.46833336
-0.13008572 -0.090611435 0.47100002
-0.12405553 -0.090744756 0.4734211
-0.11456135 -0.091230534 0.47737041
-0.10880143 -0.091352135 0.47900006
-0.13024049 -0.087650955 0.47075003
-0.12478612 -0.085048392 0.47173291
-0.11493049 -0.085058279 0.47574636
-0.10741751 -0.084436707 0.47868973
-0.12347668 -0.076374255 0.4710418
-0.11495333 -0.075055026 0.47383589
-0.10663196 -0.074393518 0.47754127
-0.09944953 -0.070253342 0.47900003
-0.1142193 -0.068138123 0.47329029
-0.10514783 -0.068641357 0.47750002
-0.096378841 -0.065738842 0.47622225
-0.086596198 -0.060621187 0.47237507
-0.12182149 -0.054643452 0.47008118
-0.11510947 -0.054941703 0.472112
-0.10488393 -0.054694302 0.47596759
-0.094758876 -0.054924246 0.47565526
-0.084881485 -0.057221368 0.4741919
-0.076444738 -0.055755492 0.4771499
-0.067267366 -0.055364937 0.47900006
-0.12139775 -0.045335501 0.47004563
-0.11507493 -0.045000706 0.47217613
-0.10486761 -0.04509728 0.4767127
-0.098224632 -0.044457197 0.47884625
-0.1215392 -0.036313016 0.47007427
-0.11502056 -0.035014708 0.47211358
-0.10479709 -0.035149995 0.47619277
-0.098170392 -0.0342195 0.47873688
-0.12124082 -0.026281636 0.47000015
-0.11507845 -0.02517526 0.47204205
-0.10492936 -0.025408201 0.47611848
-0.097686596 -0.025162058 0.47824001
-0.13137619 -0.010966668 0.47000003
-0.12386332 -0.012527324 0.47044232
-0.11478747 -0.015304933 0.47250378
-0.10492118 -0.01520955 0.47576219
-0.097344853 -0.01480406 0.47810388
-0.14055239 -0.0076095243 0.47000003
-0.13376024 -0.0076445038 0.47151938
-0.12472751 -0.0059138048 0.47446865
-0.11476408 -0.0061663473 0.47616223
-0.10614872 -0.0071839802 0.47732884
-0.098276474 -0.0083417697 0.47900009
-0.11176668 0 0.47900003
-0.10430069 0.015456026 0.47195107
-0.095068701 0.015815876 0.47515419
-0.087164596 0.016894691 0.47796613
-0.1029503 0.024609206 0.47069016
-0.095182337 0.02526119 0.47368917
-0.085137919 0.025169885 0.4773286
-0.079026245 0.026529236 0.47900006
-0.10172022 0.032899685 0.47059262
-0.094831631 0.035035249 0.47212982
-0.084814318 0.03505611 0.47561553
-0.078092031 0.035627693 0.47823089
-0.092482924 0.042452175 0.47088894
-0.084948741 0.044977404 0.47262031
-0.075451262 0.045608137 0.47602648
-0.068112992 0.048007004 0.47808006
-0.055639591 0.046865307 0.47530964
-0.083559781 0.054594472 0.47102994
-0.075010903 0.055135485 0.47422129
-0.065496609 0.055102538 0.47743851
-0.057352092 0.054102272 0.47491679
-0.09117391 0.068694487 0.47020006
-0.084092952 0.065455951 0.47117162
-0.076189823 0.063932665 0.47217283
-0.064646207 0.06280303 0.47700006
-0.055627182 0.066867381 0.47150677
-0.047616724 0.068157531 0.47500005
-0.038776197 0.068884768 0.47900003
-0.091757715 0.075441547 0.47030953
-0.085020855 0.074862137 0.4726077
-0.075388215 0.075492643 0.47540191
-0.066696614 0.074668482 0.4734154
-0.054250237 0.071360804 0.47134292
-0.044338036 0.071905605 0.47691122
-0.037918556 0.073063478 0.47900003
-0.09196873 0.084000066 0.47017959
-0.08514899 0.084932916 0.47265211
-0.075251751 0.085230373 0.4760167
-0.068723187 0.084385931 0.47606054
-0.092549175 0.095664158 0.47045606
-0.085092604 0.094979607 0.47283715
-0.075208642 0.095234297 0.47595128
-0.068882123 0.095849536 0.47461537
-0.12256689 0.10763553 0.47103232
-0.11539377 0.10758848 0.47362918
-0.10629715 0.10788091 0.47503713
-0.094489753 0.10427576 0.47117609
-0.084796898 0.1042825 0.47361937
-0.075301617 0.10499866 0.47628233
-0.068231747 0.101 0.47133335
-0.12306927 0.11518098 0.47378948
-0.11435837 0.11193056 0.47535723
-0.10553827 0.11169521 0.47817075
-0.080976196 0.11038096 0.47500002
-0.075802945 0.1104104 0.4769091
-0.12516764 0.12094655 0.47433335
-0.10399697 -0.092422873 0.48264441
-0.095481746 -0.092039011 0.48600009
-0.088572226 -0.091353491 0.48691672
-0.10280901 -0.085556135 0.48102996
-0.094963305 -0.084989429 0.48400038
-0.08625602 -0.083839126 0.48762017
-0.10252191 -0.076210804 0.47999972
-0.095044143 -0.07509324 0.48169824
-0.085177466 -0.074997276 0.48637167
-0.078471318 -0.073651016 0.48809388
-0.094044551 -0.066750877 0.48140591
-0.085038356 -0.066065773 0.48510647
-0.077022113 -0.064765431 0.48827279
-0.094209522 -0.052958164 0.48019993
-0.085817322 -0.052709419 0.48330638
-0.074177131 -0.053100713 0.48365575
-0.064778365 -0.052490141 0.4825806
-0.055350609 -0.051885091 0.48402333
-0.048301592 -0.051088888 0.48766667
-0.093540519 -0.044941314 0.48031685
-0.085199229 -0.045137607 0.48360625
-0.075186051 -0.045180622 0.48725817
-0.067072824 -0.048318274 0.48745459
-0.054096077 -0.048855074 0.48558831
-0.048491955 -0.048068058 0.48872727
-0.093600176 -0.034958333 0.48024073
-0.085133336 -0.034976594 0.48322749
-0.075279124 -0.035157066 0.48734725
-0.06985715 -0.030737145 0.48900002
-0.093103491 -0.024371883 0.48014063
-0.085051149 -0.024829421 0.4827652
-0.07516408 -0.025057847 0.4872146
-0.069524497 -0.025414694 0.48899999
-0.092603602 -0.014901668 0.48042855
-0.085043341 -0.014710316 0.482712
-0.075136177 -0.014802767 0.48679164
-0.068925723 -0.011177142 0.48900005
-0.13110515 -0.0012845716 0.48200002
-0.12678181 -0.0012207408 0.4807778
-0.11757839 -0.0019380391 0.48070589
-0.103916 -0.0029877694 0.4811579
-0.094740719 -0.0048197182 0.48189536
-0.085066393 -0.0051660989 0.48436853
-0.07530351 -0.0051835654 0.48760167
-0.068408258 -0.0079171425 0.48899999
-0.13178489 0.0018458334 0.48425007
-0.12939477 0.0012676191 0.4835
-0.11472695 0.0003929252 0.48128572
-0.10450065 0.0012803033 0.48409095
-0.094980314 0.0020236396 0.48657155
-0.085486598 0.0013203986 0.48797682
-0.077126198 0.00031047623 0.48883337
-0.083305851 0.014533293 0.48103926
-0.074968256 0.015436897 0.48309711
-0.065341525 0.016100887 0.48729208
-0.059125401 0.01831143 0.4888334
-0.080685712 0.020800002 0.48000002
-0.074561901 0.024439985 0.48154029
-0.065025993 0.025036186 0.48518634
-0.057981312 0.025347114 0.48829803
-0.073265463 0.034476258 0.48042834
-0.065159187 0.034882139 0.4834922
-0.056198418 0.035641011 0.48559269
-0.049365718 0.038654286 0.48900002
-0.072558433 0.041649774 0.48034775
-0.064534575 0.044352632 0.48132342
-0.054135624 0.044415988 0.48571104
-0.047838315 0.045780912 0.48867455
-0.020716827 0.048081588 0.48700005
-0.017845308 0.045876142 0.48763654
-0.06308572 0.050742861 0.48000002
-0.053242896 0.05537764 0.4829016
-0.04554775 0.055086713 0.48668048
-0.038478654 0.05733081 0.48875004
-0.02088381 0.052906804 0.48728573
-0.018557824 0.052890614 0.48714298
-0.06308572 0.064914286 0.48000002
-0.05324167 0.063180901 0.48159206
-0.044567212 0.0647147 0.48511127
-0.0364375 0.066203162 0.48743892
-0.029340001 0.06985715 0.48900002
-0.061023686 0.076953582 0.48131248
-0.055790007 0.07729727 0.48271674
-0.045451675 0.077280082 0.48572129
-0.033705257 0.073970757 0.4821741
-0.024950275 0.075127773 0.48386332
-0.015359553 0.076982789 0.48685297
-0.0084675327 0.077901304 0.48900002
-0.062086154 0.086038545 0.48148853
-0.055177286 0.084976435 0.48277882
-0.045614019 0.084754527 0.4867079
-0.038395558 0.081137791 0.48900005
-0.022467686 0.084835164 0.486375
-0.01603651 0.082168683 0.48620012
-0.0086157145 0.080335721 0.48900002
-0.062440693 0.095607631 0.48054549
-0.055077076 0.095072165 0.48341894
-0.046223979 0.09489926 0.48689127
-0.024182986 0.094974451 0.4873167
-0.10197791 0.10930248 0.48060003
-0.099864773 0.10994287 0.48100004
-0.070628576 0.10902858 0.48000002
-0.064792678 0.10540805 0.48116955
-0.054993939 0.10491316 0.48362216
-0.046367697 0.10449871 0.48771417
-0.023630317 0.10339378 0.48589361
-0.1007962 0.11177181 0.48020002
-0.094234794 0.11390313 0.4842028
-0.085422255 0.11569651 0.48715177
-0.079373345 0.1165797 0.48833334
-0.062509634 0.11124338 0.48222223
-0.054641746 0.1130214 0.48512658
-0.047176134 0.11246502 0.48756674
-0.083166674 -0.1805905 0.49900004
-0.079364762 -0.18059048 0.49900001
-0.10237188 -0.17130937 0.49900004
-0.094698973 -0.17373158 0.4978686
-0.085146792 -0.17474006 0.49747682
-0.075275496 -0.17443278 0.49765983
-0.066202365 -0.17331719 0.49880004
-0.11025524 -0.16300666 0.49900004
-0.1047557 -0.16462651 0.49830702
-0.094855204 -0.16474284 0.49603063
-0.084973499 -0.16475713 0.49568138
-0.07505101 -0.16491549 0.49562472
-0.065327585 -0.16513455 0.49708205
-0.059218805 -0.1644737 0.49899992
-0.11107463 -0.15476374 0.49899986
-0.10466107 -0.15490396 0.49724758
-0.094737157 -0.15485287 0.49499965
-0.085170045 -0.1548125 0.4940798
-0.075280242 -0.15505125 0.49441719
-0.065205984 -0.15493561 0.49670157
-0.058384024 -0.15512925 0.49895456
-0.11064661 -0.14553466 0.49900004
-0.10462043 -0.14481832 0.49754727
-0.094875999 -0.14511849 0.4954949
-0.085059777 -0.14493205 0.49449092
-0.075330421 -0.14532132 0.49517208
-0.065420933 -0.14496279 0.49757025
-0.05915584 -0.1460565 0.49899998
-0.11025524 -0.13924477 0.49900001
-0.10407895 -0.13569508 0.49878073
-0.095254913 -0.13509518 0.49707758
-0.085087813 -0.13519345 0.49634689
-0.074837878 -0.13482897 0.49629357
-0.065971538 -0.1354479 0.49802002
-0.093761317 -0.12681545 0.49886897
-0.084874801 -0.12591799 0.49861419
-0.075608619 -0.12557636 0.49875516
-0.068705857 -0.12716013 0.49900007
-0.080790475 -0.11928476 0.49900001
-0.077260137 -0.11962421 0.49900007
-0.085542627 -0.091161199 0.49149999
-0.082509249 -0.086919338 0.49030215
-0.075241506 -0.0848011 0.49352428
-0.065657765 -0.083514817 0.49662349
-0.059103623 -0.082859807 0.49886674
-0.073621534 -0.075308524 0.49093351
-0.065085039 -0.075004533 0.49468717
-0.056476034 -0.074520491 0.49773338
-0.072008863 -0.065529183 0.49032634
-0.064752042 -0.064838238 0.49303335
-0.055101339 -0.065003924 0.49694696
-0.046727929 -0.062442433 0.49819994
-0.071755767 -0.059295449 0.49066672
-0.063310929 -0.058314588 0.49442318
-0.054511368 -0.05726815 0.49657819
-0.044919997 -0.05508434 0.49521181
-0.037084643 -0.051548213 0.49374998
-0.028342858 -0.050072383 0.49600002
-0.064658955 -0.044240013 0.49150029
-0.055098198 -0.044288542 0.49444878
-0.044593666 -0.045173127 0.49439794
-0.034830272 -0.046484854 0.4943254
-0.025677843 -0.044448651 0.49718064
-0.019552654 -0.043993477 0.49900007
-0.064904861 -0.035011098 0.49144298
-0.054682713 -0.03488943 0.49503279
-0.046372842 -0.034208342 0.49480307
-0.064542033 -0.025106343 0.49118289
-0.055004038 -0.025039924 0.49458793
-0.046456289 -0.025427368 0.49373686
-0.070933335 -0.018666666 0.49000001
-0.064850345 -0.015404172 0.4909662
-0.055258557 -0.014930179 0.49434471
-0.049471434 -0.016960274 0.49471432
-0.071400002 -0.00093333336 0.49000001
-0.064512648 -0.0045351791 0.49125278
-0.055000618 -0.0051595736 0.49405575
-0.045988604 -0.0043573738 0.49833351
-0.1008 0.0037333334 0.49000001
-0.091980003 0.0046690474 0.49025002
-0.083617158 0.0056309532 0.49363464
-0.074630879 0.0051161377 0.4938491
-0.065112568 0.0045360094 0.49551705
-0.055361796 0.0040379087 0.49735293
-0.047841623 0.0015682857 0.49884996
-0.081909768 0.010889525 0.49712503
-0.076723605 0.01053926 0.49800006
-0.063123815 0.013095237 0.491
-0.0550275 0.016884483 0.49292654
-0.0460984 0.018126884 0.49554563
-0.035747942 0.019933334 0.49833339
-0.053154983 0.025080256 0.49064854
-0.045291729 0.025088761 0.49438027
-0.035933685 0.02564759 0.49812526
-0.029464763 0.029464763 0.49900001
-0.052332319 0.03403765 0.49003321
-0.044845041 0.034756843 0.49254319
-0.034971401 0.034974489 0.4962891
-0.027076533 0.036804073 0.49878004
-0.043250386 0.044379704 0.49124056
-0.03494554 0.045167599 0.49490717
-0.025368981 0.044956885 0.49758536
-0.018717526 0.04154953 0.49130002
-0.041490287 0.051115241 0.49060002
-0.034119789 0.054582547 0.49199015
-0.025898023 0.05518977 0.4944607
-0.01663325 0.058834374 0.49672726
-0.034082025 0.064548574 0.49034899
-0.027157694 0.064409181 0.49222386
-0.014559532 0.064903319 0.4974741
-0.0087195868 0.065376244 0.49899992
-0.033116825 0.0795708 0.49211115
-0.027357142 0.072957143 0.49100003
-0.014351034 0.072681941 0.4966768
-0.0083435727 0.073323652 0.49833331
-0.040777657 0.087346286 0.49026671
-0.034415122 0.085460097 0.49176389
-0.027348146 0.085817344 0.49334696
-0.015516524 0.086944811 0.49899998
-0.041161075 0.094993636 0.49043745
-0.034944106 0.094898365 0.49134967
-0.026797274 0.094969481 0.49306121
-0.016942937 0.095019445 0.4989213
-0.04163697 0.10592557 0.49048641
-0.035112597 0.10487801 0.49160925
-0.026743446 0.10487429 0.4928523
-0.016525319 0.10493775 0.49890262
-0.077918679 0.11613162 0.49050003
-0.041920073 0.11262084 0.49053335
-0.034566037 0.11469821 0.49207869
-0.024970507 0.11501376 0.49608499
-0.017177844 0.1143672 0.49871835
-0.031343337 0.12122976 0.49675003
-0.025273526 0.12118458 0.49704996
-0.10230969 -0.19139683 0.50791663
-0.094791628 -0.19295691 0.50768298
-0.086334847 -0.19334432 0.50741309
-0.074599445 -0.19167395 0.50747061
-0.066264316 -0.19157904 0.50700003
-0.11381036 -0.18373387 0.50679171
-0.10507303 -0.18464528 0.50451255
-0.095176302 -0.18519534 0.50298786
-0.085256428 -0.18538521 0.50226933
-0.074738957 -0.1851653 0.50279772
-0.065175898 -0.18475799 0.50432563
-0.05744148 -0.18205699 0.5053637
-0.1225618 -0.17374815 0.50758827
-0.11489282 -0.17505407 0.50424427
-0.10553541 -0.17568596 0.50137669
-0.096481822 -0.17858684 0.50021744
-0.072518736 -0.17891556 0.50022221
-0.06346453 -0.17709643 0.50139147
-0.054976817 -0.17484875 0.50430787
-0.047526199 -0.17353308 0.5072813
-0.12373682 -0.16516581 0.50639999
-0.11532006 -0.16488613 0.50190794
-0.10857144 -0.16897961 0.5
-0.054142974 -0.16526935 0.50236768
-0.046316743 -0.1647245 0.50667906
-0.12493225 -0.15518965 0.50628388
-0.11633373 -0.15481329 0.50155139
-0.053557917 -0.15480712 0.50165337
-0.045838583 -0.15500902 0.50553423
-0.12471799 -0.14493169 0.50591964
-0.1159141 -0.14483996 0.50178826
-0.054502789 -0.14457038 0.50176269
-0.046058528 -0.14507082 0.50619191
-0.12328285 -0.13512146 0.50677955
-0.11517183 -0.13503535 0.50247157
-0.10806765 -0.1329529 0.50055176
-0.061541274 -0.13344631 0.50079322
-0.05479002 -0.13501361 0.50349176
-0.0471505 -0.13556185 0.50732201
-0.12227763 -0.12715976 0.50867993
-0.11508704 -0.12488069 0.50516206
-0.10502578 -0.12516329 0.50190157
-0.096046031 -0.12293476 0.50096381
-0.087545983 -0.12117456 0.50035715
-0.072195858 -0.12249749 0.50105882
-0.064476825 -0.12479851 0.50195295
-0.05514086 -0.12521064 0.50578272
-0.048802603 -0.12776746 0.50781816
-0.11337522 -0.11728311 0.50766677
-0.10492593 -0.11518066 0.5058586
-0.095066972 -0.11498906 0.50361252
-0.085087441 -0.11517452 0.50274134
-0.074973702 -0.11480334 0.50333858
-0.065318264 -0.11534151 0.50557989
-0.057634644 -0.11748523 0.50765795
-0.1019877 -0.10798577 0.50800002
-0.094680995 -0.10786217 0.50741524
-0.085390024 -0.10802291 0.50740355
-0.07530424 -0.10789053 0.50754166
-0.067366913 -0.1084399 0.5083158
-0.06454286 -0.087013341 0.50200003
-0.053852249 -0.083409734 0.50332135
-0.045339879 -0.083225384 0.50622374
-0.039750479 -0.081440002 0.509
-0.052159186 -0.076114841 0.50128585
-0.04518313 -0.075076975 0.50376403
-0.036610138 -0.073298708 0.50758499
-0.050526671 -0.069117144 0.50050002
-0.044626065 -0.066684976 0.50252068
-0.035079531 -0.065077119 0.50614727
-0.02727481 -0.062366765 0.50831032
-0.04113926 -0.058556821 0.50488889
-0.034737427 -0.05609021 0.50437045
-0.026888425 -0.055589918 0.50737685
-0.040160008 -0.041116193 0.50200003
-0.035230201 -0.041712813 0.50190252
-0.024588732 -0.040299371 0.50275004
-0.014680267 -0.042465556 0.50255162
-0.0055609825 -0.0429019 0.50449979
0.0018174793 -0.043543875 0.50697058
-0.040912874 -0.034336563 0.50256532
-0.034990937 -0.03499357 0.50332993
-0.025152074 -0.035127588 0.50640184
-0.015321215 -0.037642427 0.50568181
-0.0044794455 -0.035638805 0.50587356
0.0010560545 -0.036865398 0.50547624
-0.041856404 -0.024302222 0.50110412
-0.034964941 -0.024908531 0.50298184
-0.025062924 -0.025071103 0.50621498
-0.018488698 -0.024934912 0.50856519
-0.0043692756 -0.02526788 0.50514483
0 -0.028292857 0.50349998
-0.042295352 -0.014456611 0.50170386
-0.034949865 -0.014844837 0.50275987
-0.025046416 -0.014936622 0.50589114
-0.018408924 -0.014482707 0.50868416
-0.0062339231 -0.014835463 0.50544125
-0.041342735 -0.0055359751 0.50064522
-0.035037331 -0.0053023524 0.50253916
-0.025060978 -0.0053002941 0.50613654
-0.015673334 -0.0051276824 0.50803339
-0.0092817461 -0.0060542859 0.50849998
-0.062857144 0.009523809 0.5
-0.053025667 0.008579148 0.50042105
-0.044310551 0.0054204459 0.50206912
-0.035016645 0.0048046941 0.50371814
-0.025542626 0.0044081663 0.50666678
-0.019222541 0.0016158731 0.50883341
-0.072311908 0.011115715 0.50200003
-0.064202763 0.011279081 0.50114816
-0.054995205 0.011517236 0.50377429
-0.044160549 0.011216056 0.50671422
-0.03545709 0.012222299 0.50761759
-0.027306668 0.011815026 0.50788891
-0.032902941 0.022984019 0.50100005
-0.025050627 0.025437897 0.50217295
-0.014854493 0.026839208 0.50626379
-0.0088112466 0.027079815 0.50861901
-0.023912609 0.032774094 0.50145113
-0.014183704 0.03452557 0.50488901
-0.005594044 0.035512861 0.50771254
0.0004847619 0.039265715 0.509
-0.013289081 0.044993524 0.50379467
-0.0054503023 0.044895384 0.506796
0.00024238095 0.045567621 0.509
-0.013730641 0.054615848 0.5020135
-0.0052460111 0.054880209 0.5051195
0.0022138178 0.055577271 0.50754243
-0.010476191 0.059999999 0.5
-0.0043295245 0.064866386 0.50236768
0.0038662783 0.064881124 0.50526905
-0.0039364723 0.075058207 0.50112677
0.0039904965 0.074795723 0.50384033
-0.012675445 0.086248279 0.50021738
-0.0050218953 0.085249119 0.50209457
0.0032845675 0.084986307 0.50471807
-0.020952381 0.092380948 0.5
-0.012185134 0.095142439 0.50058538
-0.0051529449 0.095117211 0.50320011
0.0012748459 0.0940511 0.50491178
-0.020952381 0.10666667 0.5
-0.011396621 0.10519989 0.50135487
-0.0052727805 0.10503057 0.50357026
0 0.10434166 0.50487506
-0.012024761 0.11534865 0.50068289
-0.0053736935 0.11480455 0.50306594
0.002023492 0.11728741 0.50411111
-0.030055238 0.12700763 0.509
-0.025882946 0.12656382 0.50827271
-0.015158993 0.1226269 0.50194538
-0.005722166 0.12208484 0.50279552
0 0.12071429 0.50700003
-0.12209759 -0.19263926 0.5182308
-0.11439951 -0.19251265 0.51243335
-0.10671055 -0.19333018 0.51137036
-0.095049702 -0.19674557 0.51050013
-0.082828961 -0.1948263 0.5104
-0.074862741 -0.19523171 0.51128119
-0.13162905 -0.18196097 0.51812506
-0.12437945 -0.18411218 0.51364905
-0.11741947 -0.18749647 0.51195461
-0.060833335 -0.18882668 0.51100004
-0.054084264 -0.18599281 0.51157129
-0.046279445 -0.1841772 0.51498461
-0.038478732 -0.18055999 0.51800007
-0.14037715 -0.17201146 0.51900005
-0.13387512 -0.17399053 0.51566672
-0.12709616 -0.17586546 0.51184607
-0.043196563 -0.17538495 0.51208061
-0.036080353 -0.17462039 0.51685739
-0.14037715 -0.16262002 0.51900005
-0.13455962 -0.16505827 0.51401335
-0.12887686 -0.16554375 0.51052952
-0.041568961 -0.165938 0.51050007
-0.035777565 -0.1645754 0.51404345
-0.029105715 -0.16082573 0.51800001
-0.14066128 -0.1536743 0.5188334
-0.13444541 -0.15496895 0.51274699
-0.041001908 -0.15509288 0.51050013
-0.035283182 -0.15514015 0.51398236
-0.028977372 -0.15603799 0.51829416
-0.1409633 -0.14724363 0.51818192
-0.13472322 -0.14513372 0.5138694
-0.12932667 -0.14245144 0.51050007
-0.041277241 -0.1444463 0.51050007
-0.03564626 -0.1448766 0.51364565
-0.13421179 -0.1353897 0.51519704
-0.12822875 -0.13424151 0.51081812
-0.042491682 -0.13419221 0.51169997
-0.035863865 -0.13556254 0.51595449
-0.13285871 -0.12608045 0.51666003
-0.1260785 -0.12418607 0.51225358
-0.051279735 -0.12145934 0.51071435
-0.044695415 -0.12478966 0.51346356
-0.037698098 -0.12686715 0.51744449
-0.13122629 -0.11820153 0.51800001
-0.12455701 -0.11554491 0.51524985
-0.11628868 -0.11359265 0.51177406
-0.1095 -0.11096001 0.51100004
-0.061396196 -0.1114862 0.51062506
-0.054033201 -0.11402495 0.51294702
-0.046593476 -0.11591168 0.51601267
-0.12161972 -0.105667 0.51673919
-0.11466897 -0.10629242 0.51433784
-0.10545316 -0.10491472 0.51235569
-0.095392138 -0.10312745 0.51199991
-0.084924214 -0.1030606 0.51094192
-0.074919596 -0.10298719 0.51216245
-0.064664647 -0.10445692 0.51357549
-0.056291405 -0.10666089 0.5158428
-0.048176762 -0.10869429 0.51830006
-0.12223925 -0.099746287 0.51340002
-0.11944381 -0.099862859 0.514
-0.10182096 -0.099862859 0.51400006
-0.093842588 -0.098892353 0.51384002
-0.08431676 -0.097256027 0.51446879
-0.075071007 -0.096851096 0.51672459
-0.067183971 -0.098517403 0.51808339
-0.040800005 -0.085000001 0.51000005
-0.038088996 -0.082661606 0.51055568
-0.033478964 -0.07664004 0.51016992
-0.024927378 -0.074198402 0.51282024
-0.016160671 -0.073127471 0.51647073
-0.0098761916 -0.070615239 0.51850003
-0.030114288 -0.068485722 0.51000005
-0.023869526 -0.065764181 0.51095718
-0.015180912 -0.065162107 0.51441991
-0.0059254793 -0.063745335 0.51746583
0.0026865029 -0.061839018 0.51389658
-0.021847522 -0.054845225 0.51066667
-0.015144704 -0.055227563 0.51316023
-0.0055413716 -0.054836854 0.51591969
0.0015191535 -0.056949947 0.51455557
-0.022240955 -0.048722312 0.51085728
-0.01528604 -0.048251338 0.51263422
-0.0047145323 -0.048203558 0.51441944
0.0008326532 -0.048513476 0.51085716
-0.022356194 -0.03823429 0.51033342
-0.014986868 -0.034293462 0.51110232
-0.0084572192 -0.033197947 0.51143998
0.002537207 -0.034035306 0.51893342
-0.014046536 -0.024761464 0.5112077
-0.0067948531 -0.024385951 0.51278371
0.0020618415 -0.024832001 0.51775563
-0.014272712 -0.015199742 0.51050603
-0.0033650598 -0.015412325 0.51593757
0.001596508 -0.015276008 0.51745242
-0.014782858 -0.0054326272 0.51059997
-0.0026698874 -0.0053195935 0.5165953
0.0020935235 -0.0054236185 0.51784009
-0.021455824 0.0083736284 0.5102309
-0.014826489 0.0050498531 0.51045161
-0.0053027328 0.0050299242 0.51446712
0.001587661 0.0050392551 0.51773924
-0.044982508 0.015027919 0.51169807
-0.034333374 0.015783124 0.51249993
-0.02486602 0.015237768 0.51282954
-0.014836255 0.014650771 0.5140115
-0.0063421545 0.01454907 0.51674992
0.00039542862 0.011660953 0.51880008
-0.013794287 0.023508573 0.51000005
-0.005099772 0.026879475 0.51093107
-0.0025425644 0.031043522 0.51053858
0.0041970317 0.035507306 0.51269764
-0.0019428574 0.046628576 0.51000011
0.0052273935 0.04484766 0.51136202
0.010769524 0.04112 0.51400006
0.007057182 0.054621328 0.51062745
0.0087600006 0.06034667 0.51100004
-0.030114288 0.12920001 0.51000005
-0.024209961 0.12775527 0.51077139
-0.016485833 0.12878416 0.5110001
-0.030114288 0.13017143 0.51000005
-0.024319286 0.13036285 0.51075006
-0.018493336 0.13042668 0.51100004
-0.1262652 -0.19282022 0.52105552
-0.14000002 -0.18150002 0.52500004
-0.1344358 -0.18470587 0.52164871
-0.12793589 -0.18892764 0.52066672
-0.044571429 -0.18819049 0.52000004
-0.036718484 -0.18258362 0.52270001
-0.14240712 -0.17342913 0.52381825
-0.13782685 -0.17755525 0.52149999
-0.031630702 -0.17373456 0.52188241
-0.028555503 -0.1728722 0.52268183
-0.15099892 -0.16337824 0.52900004
-0.14505109 -0.16457604 0.5241096
-0.03127471 -0.16804869 0.52033335
-0.025828231 -0.16493821 0.52647418
-0.15063906 -0.15819621 0.52900004
-0.14542438 -0.15585774 0.5244
-0.025698446 -0.15450376 0.5231334
-0.14450671 -0.14409611 0.52275443
-0.030746941 -0.14580002 0.52071428
-0.026486233 -0.14504357 0.52351844
-0.14393046 -0.1352464 0.52440345
-0.13914859 -0.13366687 0.52063161
-0.03168343 -0.13360366 0.52112001
-0.027160238 -0.13507271 0.52452689
-0.14292468 -0.12503925 0.52706379
-0.13718443 -0.12390346 0.52139479
-0.040609527 -0.12133335 0.52000004
-0.033741776 -0.12437984 0.52342182
-0.028047865 -0.12634832 0.52835494
-0.14137787 -0.11896833 0.52875006
-0.13494715 -0.11491433 0.52471238
-0.12807518 -0.11166375 0.52092308
-0.042356431 -0.11337806 0.52197921
-0.035863157 -0.11586611 0.5254271
-0.028969049 -0.11915095 0.52900004
-0.13273245 -0.10902931 0.52515388
-0.12524448 -0.10679545 0.52083784
-0.11984763 -0.10400001 0.52000004
-0.060972385 -0.10013428 0.52050006
-0.053900547 -0.10264718 0.52261549
-0.045620553 -0.10563572 0.52615279
-0.038433474 -0.10911076 0.52900004
-0.071608953 -0.093725346 0.52069998
-0.064445145 -0.094626427 0.52272075
-0.056491513 -0.096608922 0.52691174
-0.048365723 -0.099754296 0.52900004
-0.011169049 -0.074465245 0.52125001
-0.0057615056 -0.073622219 0.5225324
0.003425464 -0.07109464 0.52415794
-0.0034698413 -0.068001658 0.52054179
0.0052021919 -0.066593729 0.52536666
0.012781637 -0.063780583 0.52829993
0.0077199987 -0.05446399 0.52371436
0.014246574 -0.055010904 0.52680951
0.007170761 -0.045555897 0.52276683
0.014176331 -0.044462968 0.52673173
0.0071246028 -0.03519731 0.52170008
0.0143122 -0.035131492 0.5267567
0.007167134 -0.025548864 0.52100003
0.012885955 -0.025147723 0.5266785
0.0065468978 -0.015399668 0.52156895
0.011819222 -0.014689308 0.52593166
0.0068386281 -0.0054626293 0.52157998
0.011777998 -0.00485881 0.52614999
0.0065053143 0.0047505382 0.52353227
0.010985022 0.0029237233 0.52650005
-0.0024800007 0.017656827 0.52095842
0.0044162138 0.014828118 0.52422506
0.010076191 0.01058 0.52900004
-0.010019048 0.02104 0.52600002
-0.0046411431 0.022451179 0.52616674
0.002755556 0.021478415 0.52645838
-0.16230577 -0.18237579 0.53833336
-0.15552059 -0.18128353 0.53781492
-0.14890413 -0.18127494 0.53666675
-0.16425769 -0.17457773 0.53671664
-0.15500435 -0.17458616 0.53411555
-0.14838868 -0.1756772 0.53391302
-0.024278812 -0.17135167 0.53112501
-0.16335972 -0.16558234 0.53749126
-0.15602723 -0.16538839 0.53365237
-0.021509357 -0.16619004 0.53029418
-0.16110125 -0.15758207 0.53871435
-0.15491922 -0.15488131 0.53506249
-0.14997333 -0.15301333 0.53200001
-0.021631591 -0.15442756 0.53120691
-0.017781589 -0.15562813 0.53433335
-0.15352221 -0.14878976 0.53815395
-0.02134634 -0.14483783 0.53294295
-0.019055113 -0.14591213 0.53400004
-0.14940953 -0.13628572 0.53000003
-0.022564428 -0.13513629 0.53555006
-0.025213968 -0.12469886 0.5347777
-0.14208868 -0.11664687 0.53072232
-0.13931429 -0.11357144 0.53000003
-0.032159496 -0.11283462 0.53209996
-0.027863512 -0.11645579 0.53503126
-0.042179178 -0.1025797 0.53251719
-0.036716513 -0.10533428 0.53428137
-0.061076194 -0.090857148 0.53000003
-0.053133648 -0.094218045 0.53252786
-0.046760608 -0.096992686 0.53459269
-0.039453335 -0.099401914 0.53800005
0.0084126992 -0.071003184 0.53000009
0.010095239 -0.070666671 0.53000003
0.012114286 -0.068647623 0.53000003
0.019253332 -0.058266666 0.53200001
0.018712381 -0.042982858 0.53100002
0.020190477 -0.040380955 0.53000003
0.018831749 -0.033810794 0.53153348
0.02024762 -0.035936903 0.53150004
0.016996345 -0.025393827 0.53224009
0.015160273 -0.018623404 0.53057146
0.011104763 0.010600001 0.53000003
-0.0025285715 0.024274286 0.53100002
-0.1923794 -0.22572434 0.54863638
-0.18499041 -0.22317834 0.54619235
-0.17487676 -0.22276498 0.5446924
-0.16886505 -0.22148736 0.54628575
-0.18253548 -0.2173783 0.5460453
-0.17491925 -0.21534801 0.5444088
-0.16695321 -0.2144803 0.54539996
-0.17382827 -0.20528236 0.54350758
-0.16534983 -0.20494391 0.5446555
-0.17384639 -0.19491123 0.54390758
-0.16508994 -0.19526537 0.54293001
-0.1585308 -0.19364482 0.54487503
-0.17379566 -0.18557708 0.54365504
-0.1657017 -0.1862444 0.54067272
-0.1568819 -0.18640216 0.54125726
-0.17186189 -0.17461939 0.54079998
-0.16902858 -0.17574859 0.54000008
-0.1720251 -0.16676284 0.54291308
-0.16760276 -0.16385376 0.5401786
-0.16384274 -0.15531883 0.54055339
-0.15884084 -0.15120001 0.54000002
-0.015312947 -0.15416838 0.54086494
-0.16053455 -0.14762834 0.54200006
-0.15661699 -0.14628212 0.54071879
-0.016890667 -0.14463241 0.54080003
-0.020833332 -0.13271596 0.54012501
-0.018643878 -0.13576564 0.54044443
-0.022628572 -0.1229143 0.54000002
-0.031335242 -0.1108762 0.54233336
-0.026236136 -0.11468774 0.54231429
-0.034741063 -0.10221387 0.54544443
-0.029477146 -0.10911716 0.54300004
-0.043226067 -0.095489092 0.54168433
-0.037274018 -0.098386303 0.54509532
-0.1927619 -0.2245397 0.55000007
-0.18019047 -0.19066666 0.55000001
-0.18019047 -0.18961905 0.55000001
-0.17914286 -0.18961905 0.55000001
-0.041316509 -0.093621433 0.55383337
-0.038066667 -0.094698273 0.55392003
