# .PCD v0.7 - Point Cloud Data file format
VERSION 0.7
FIELDS x y z
SIZE 4 4 4
TYPE F F F
COUNT 1 1 1
WIDTH 1390
HEIGHT 1
VIEWPOINT 0 0 0 1 0 0 0
POINTS 1390
DATA ascii
-0.1971108 0.15456377 0.55164111
-0.16289735 0.15103798 0.55405879
-0.15683413 0.15253334 0.55195659
-0.050285716 0.15923809 0.55000001
-0.04414722 0.15630649 0.55601674
-0.034928959 0.15490374 0.5531379
-0.029229932 0.1524781 0.55371428
-0.21175238 0.16663536 0.55808002
-0.20493275 0.16500974 0.55457151
-0.19794637 0.16487965 0.55081826
-0.061180949 0.16887619 0.55000001
-0.054723378 0.16555144 0.5522576
-0.044436134 0.16463408 0.55728149
-0.036453478 0.16395135 0.55283684
-0.21281241 0.17539825 0.55799997
-0.20502558 0.17487194 0.55326468
-0.19893906 0.17026922 0.55066669
-0.060365722 0.17262477 0.55600005
-0.056139402 0.17219043 0.55568182
-0.044166699 0.1750682 0.55742007
-0.038772862 0.17399667 0.55641675
-0.21324188 0.18461308 0.55659997
-0.20585248 0.18499091 0.55254298
-0.081595957 0.18582858 0.55275005
-0.075897411 0.18773267 0.55388588
-0.04589124 0.18143544 0.55900002
-0.21286657 0.19410427 0.55629629
-0.20589437 0.19477664 0.55210006
-0.072807543 0.19441257 0.55378127
-0.068665259 0.19593805 0.55731589
-0.21171765 0.20471357 0.55715013
-0.20594423 0.20484421 0.55245107
-0.073743388 0.20516415 0.55416191
-0.067525871 0.20666774 0.55366665
-0.28003237 0.21934097 0.55900002
-0.27578178 0.21901713 0.55877781
-0.21260969 0.21485189 0.55788887
-0.20549186 0.21471195 0.55211335
-0.081527807 0.21619992 0.55214292
-0.07499519 0.21504143 0.55539513
-0.067660853 0.21514297 0.55400026
-0.29122072 0.22893526 0.55828583
-0.28386211 0.22589195 0.55696547
-0.27458209 0.22445467 0.55487639
-0.26518914 0.22526102 0.55356264
-0.25545436 0.22777176 0.55414093
-0.24898553 0.22967087 0.55720001
-0.21108499 0.22512913 0.55821055
-0.20473669 0.2253231 0.55288458
-0.082846202 0.22486402 0.55425006
-0.075207897 0.2249155 0.55570942
-0.068842471 0.22383049 0.55352938
-0.29153401 0.23606199 0.55811763
-0.28497335 0.23503165 0.55498713
-0.27650395 0.23311746 0.55141866
-0.2501657 0.2301524 0.55300003
-0.24431646 0.23256838 0.55397338
-0.23524918 0.23693213 0.55414504
-0.22793333 0.23923162 0.55510521
-0.21129794 0.23455711 0.55773687
-0.2053048 0.23489362 0.55337715
-0.090690836 0.2365562 0.55043757
-0.085045174 0.23557182 0.55522096
-0.075616032 0.23402093 0.55534786
-0.069168895 0.23103115 0.55300009
-0.29357094 0.24498418 0.5567894
-0.28536892 0.24466477 0.55240327
-0.27971429 0.24199998 0.55000007
-0.22361669 0.24171135 0.55388683
-0.2153082 0.24501663 0.55411935
-0.20651181 0.24805938 0.55430019
-0.090095237 0.24095237 0.55000001
-0.083602242 0.24359703 0.5542317
-0.078857146 0.24437068 0.55820835
-0.30026287 0.2523486 0.55900002
-0.29583454 0.25188613 0.55699998
-0.28727049 0.25079569 0.55157149
-0.20422442 0.25051573 0.55345452
-0.19838476 0.25009143 0.55400002
-0.078792386 0.25021905 0.55900002
-0.18380083 0.036094759 0.56754917
-0.17513706 0.035768438 0.56509715
-0.1660839 0.035598204 0.56372017
-0.15810722 0.036494151 0.56357145
-0.14572859 0.038968094 0.56050003
-0.1913716 0.046333335 0.56823814
-0.18493758 0.044861004 0.5652917
-0.17631128 0.044545632 0.56112015
-0.14453334 0.040533334 0.56
-0.19295159 0.05505247 0.56800008
-0.18492785 0.054993317 0.56328392
-0.17817335 0.050944522 0.56012499
-0.19319443 0.065250933 0.56771064
-0.18510628 0.065067969 0.56302601
-0.17920001 0.0656 0.56
-0.19397381 0.07502871 0.56698376
-0.18518576 0.074555837 0.56180328
-0.20050476 0.088330477 0.56900001
-0.19459544 0.085184775 0.56651425
-0.18635744 0.084685929 0.56184453
-0.023989933 0.088884905 0.56514287
-0.20050476 0.092123821 0.56900001
-0.19480045 0.09492968 0.56679308
-0.187389 0.094150305 0.56097156
-0.022701532 0.093824133 0.56441867
-0.017888416 0.097300544 0.56500006
-0.19438465 0.10518628 0.56615275
-0.18694229 0.10532924 0.56223541
-0.016063321 0.10528966 0.56460387
-0.19428816 0.11511674 0.56556076
-0.18685886 0.11522104 0.56147844
-0.015929809 0.1119743 0.56525004
-0.20315874 0.12967619 0.56733334
-0.19065477 0.12203001 0.56075001
-0.18678738 0.12373089 0.56054282
-0.22082619 0.13899857 0.56900001
-0.21428975 0.1356664 0.56684399
-0.20504038 0.13488775 0.56456828
-0.19544892 0.13613819 0.56439614
-0.18534945 0.13896279 0.56596881
-0.178395 0.13920239 0.56762505
-0.020892909 0.13777228 0.56411111
-0.016583513 0.13815412 0.56461537
-0.22186954 0.14576145 0.56819999
-0.21507905 0.14511293 0.56440848
-0.20813048 0.14333463 0.5607084
-0.18256305 0.141552 0.56214994
-0.17562123 0.14342786 0.56389827
-0.16840033 0.1450543 0.56133336
-0.020886667 0.14138606 0.56233335
-0.016380381 0.14224946 0.56349999
-0.22350352 0.15539996 0.56708694
-0.21500832 0.15480641 0.56264377
-0.20906667 0.15146667 0.56000006
-0.22463219 0.16478799 0.56632817
-0.21621503 0.16423099 0.56137037
-0.050133333 0.1696 0.56
-0.046933334 0.16701752 0.56000006
-0.2318874 0.17775138 0.56841177
-0.22498317 0.17492026 0.56513619
-0.21767412 0.17457145 0.56087506
-0.053018901 0.17563827 0.5615136
-0.048663151 0.17405422 0.56007689
-0.23218332 0.18183033 0.56850004
-0.2246753 0.18450044 0.56546295
-0.21833485 0.18429369 0.56068748
-0.067105524 0.18927467 0.56459999
-0.041752383 0.18102856 0.56
-0.039466664 0.18079999 0.56
-0.22374231 0.19478175 0.56693763
-0.2174906 0.19590478 0.56143749
-0.070525721 0.19020572 0.56100005
-0.065310545 0.1948985 0.56516129
-0.22342183 0.20463884 0.56601894
-0.21673922 0.20522404 0.56205016
-0.0704 0.20373333 0.56
-0.065732598 0.20429178 0.56650019
-0.30021524 0.21730381 0.56900001
-0.29405814 0.21677084 0.56647176
-0.28495562 0.21576494 0.56511754
-0.27547282 0.21754743 0.56414753
-0.26881582 0.21929447 0.56520003
-0.22313125 0.21476327 0.56645006
-0.21665776 0.21482521 0.56110722
-0.066112377 0.21025905 0.56900001
-0.30331424 0.22769926 0.56790006
-0.29503953 0.224612 0.56372452
-0.28643939 0.22203788 0.56082153
-0.27064097 0.22046286 0.56050003
-0.26460633 0.22209074 0.56273043
-0.25554377 0.22687705 0.56510013
-0.24839678 0.22939491 0.56393743
-0.22313038 0.22506271 0.56674367
-0.21601501 0.22491638 0.56147832
-0.31159526 0.23952191 0.56900001
-0.30440053 0.2353083 0.56684077
-0.29599082 0.2347285 0.56192303
-0.24340294 0.23134759 0.56353343
-0.23538761 0.23508 0.56440538
-0.22471796 0.23677421 0.56538814
-0.21653625 0.23409912 0.56237137
-0.08426667 0.23359999 0.56
-0.31245226 0.24519673 0.56841177
-0.3051782 0.24488473 0.56454796
-0.29835182 0.24350306 0.5607059
-0.22230077 0.24108942 0.56355006
-0.21546303 0.24371356 0.56309599
-0.20677152 0.2475467 0.56111544
-0.07415238 0.24581245 0.5649668
-0.069120005 0.24408002 0.56700003
-0.31400609 0.25432631 0.56812209
-0.30561668 0.25321528 0.56259471
-0.075685546 0.25157765 0.56400001
-0.19477993 0.027079675 0.57759571
-0.18493216 0.026974738 0.57553071
-0.17553444 0.027824922 0.5735833
-0.16755684 0.029039154 0.57411104
-0.20328668 0.036349103 0.57790691
-0.19467098 0.035084166 0.57375383
-0.18672344 0.032131352 0.5710417
-0.17483252 0.030860711 0.5710001
-0.16662546 0.031533472 0.57228577
-0.20376921 0.044639017 0.57666051
-0.19581775 0.044330738 0.57153171
-0.20471071 0.055203103 0.57635719
-0.19797242 0.055317588 0.57170004
-0.21101336 0.06911239 0.57900012
-0.20460604 0.064856172 0.57498449
-0.19797714 0.064686403 0.57096004
-0.21134441 0.075373426 0.57895017
-0.20476608 0.074899085 0.57426971
-0.19904764 0.074914292 0.57000011
-0.21109682 0.084219165 0.57838899
-0.2049083 0.084786408 0.57327455
-0.1995905 0.082876198 0.57000011
-0.21119714 0.094845735 0.57900017
-0.20563215 0.095331326 0.57513994
-0.19930616 0.097404093 0.57000011
-0.014562882 0.096334934 0.57510823
-0.211771 0.10478265 0.57870597
-0.20522529 0.10482236 0.57433349
-0.012125988 0.10389166 0.57135719
-0.0084011909 0.10484739 0.57396883
-0.21084832 0.11318632 0.57845461
-0.20439056 0.11423638 0.57392311
-0.012134068 0.11543927 0.5731923
-0.0082236426 0.11462545 0.57585299
-0.23085868 0.12810743 0.57880002
-0.22473322 0.12756838 0.57666665
-0.21503709 0.12700838 0.57525414
-0.20847631 0.12846911 0.57538903
-0.012266396 0.12422504 0.5778572
-0.0090319999 0.12238002 0.57830006
-0.23289199 0.13553107 0.57738101
-0.22474143 0.13456781 0.57271016
-0.21599942 0.13122894 0.57056254
-0.20405869 0.13133095 0.57368755
-0.19462781 0.13431941 0.57476097
-0.18640697 0.13658506 0.57241374
-0.014790372 0.13590434 0.57664829
-0.0085232146 0.13788214 0.57737499
-0.23439214 0.14520162 0.57668251
-0.22662629 0.14470382 0.57178378
-0.011448571 0.14121667 0.57249999
-0.0086981822 0.14231189 0.57754552
-0.24078098 0.15897678 0.57880002
-0.23465739 0.1550492 0.57468265
-0.22821882 0.15400276 0.5707826
-0.24196137 0.16563337 0.57772011
-0.23445849 0.16520484 0.57249999
-0.24244 0.17355819 0.57704771
-0.2357785 0.17410658 0.57256246
-0.24042289 0.18682404 0.57900006
-0.23481153 0.18708794 0.57400006
-0.22928669 0.18853715 0.57050002
-0.066048004 0.18936686 0.57600003
-0.24036355 0.19531403 0.57885718
-0.2352795 0.19501863 0.57556605
-0.22929975 0.19563378 0.57150006
-0.062230792 0.1930577 0.57319045
-0.057877701 0.19601189 0.57634485
-0.3119317 0.20885122 0.57844448
-0.30494055 0.20764092 0.57715994
-0.2949928 0.20853215 0.57542866
-0.28837082 0.2092748 0.57675004
-0.24042289 0.20844004 0.57900012
-0.23513104 0.20465876 0.57482558
-0.22944328 0.20493594 0.57185721
-0.061146174 0.20526817 0.57282621
-0.057975538 0.20410311 0.5768078
-0.31378007 0.21554169 0.57700002
-0.30526671 0.21465708 0.57336122
-0.29543513 0.21213046 0.57112497
-0.28464544 0.21188085 0.57424527
-0.27550766 0.21612324 0.57465142
-0.26736933 0.21918428 0.57431591
-0.24014604 0.21150415 0.57833338
-0.23496997 0.21511747 0.57519239
-0.2287018 0.21540937 0.57104349
-0.064106926 0.21384579 0.57603347
-0.32148159 0.2261842 0.57858831
-0.31509623 0.22469884 0.57567698
-0.30646795 0.22397947 0.57143998
-0.26320234 0.22140144 0.57385361
-0.25495943 0.22493359 0.57395881
-0.24583559 0.22894917 0.57482231
-0.23399645 0.2233173 0.57503712
-0.22817951 0.22425681 0.57056522
-0.065620013 0.22542404 0.57900006
-0.32270873 0.2351758 0.57732427
-0.31536147 0.23506568 0.57327694
-0.30921146 0.23120268 0.57040006
-0.24302089 0.23109195 0.5718261
-0.23472302 0.23360619 0.57398313
-0.22792077 0.23470484 0.57109535
-0.071171053 0.23510551 0.57840008
-0.066860721 0.23256502 0.57900006
-0.32408503 0.24464907 0.57525587
-0.31658533 0.24490288 0.57103974
-0.32588887 0.25509277 0.57636374
-0.31872123 0.25492278 0.57060003
-0.32619506 0.26138955 0.57660002
-0.020738095 -0.04427762 0.58850002
-0.01611344 -0.044541702 0.58788884
-0.2122068 0.018577959 0.58857149
-0.20472367 0.017431213 0.58741939
-0.19605298 0.017761692 0.58692598
-0.21361575 0.02476012 0.58754164
-0.20503494 0.024909593 0.58331996
-0.19507119 0.021856094 0.58223683
-0.18476495 0.022163864 0.58189189
-0.1765691 0.024212409 0.58694291
-0.16099702 0.025699591 0.58842862
-0.1582574 0.026050918 0.58786666
-0.22101526 0.037583809 0.58900005
-0.21536611 0.034619916 0.58577055
-0.20711511 0.033823878 0.58033335
-0.22138858 0.044838097 0.58850002
-0.2151648 0.04499694 0.58466107
-0.20880003 0.046005446 0.58000004
-0.2215637 0.055950813 0.58817649
-0.21501192 0.05489029 0.5836001
-0.20911567 0.052712929 0.58000004
-0.22297716 0.065548167 0.58690917
-0.21533233 0.064951412 0.58204764
-0.20990478 0.065733343 0.58000004
-0.22333214 0.074598543 0.58653849
-0.21619047 0.074965872 0.58150005
-0.22324434 0.085460067 0.58765113
-0.21601997 0.085279427 0.58239996
-0.22378214 0.095105991 0.58742225
-0.21642169 0.094888069 0.58265913
-0.012042198 0.095255986 0.58307689
-0.0069719204 0.097835243 0.58541936
-0.22376867 0.10373571 0.58747059
-0.21661529 0.10461597 0.58240479
-0.0040027327 0.10476008 0.58430195
0.00032027214 0.10802478 0.58814287
-0.24252717 0.11826285 0.58835298
-0.23543467 0.11827569 0.58777416
-0.22539046 0.11844248 0.58591312
-0.21381858 0.11167644 0.58049995
-0.0035041694 0.11515459 0.58393329
0.001719873 0.11241195 0.58820003
-0.24406739 0.12508622 0.58699995
-0.23537689 0.12458017 0.58284736
-0.22499874 0.12239692 0.58169091
-0.21576241 0.12344761 0.58372718
-0.20516431 0.12714681 0.58466673
-0.19988571 0.12992571 0.583
-0.012435716 0.12726845 0.58037496
-0.0056416942 0.12491586 0.58555549
-0.25063354 0.1368724 0.58900005
-0.24498498 0.13544241 0.58575869
-0.23778492 0.13389847 0.58115387
-0.20365509 0.13106588 0.5810833
-0.19694723 0.13179508 0.58088225
-0.013831705 0.1326116 0.58121431
-0.0073939948 0.13490961 0.58703846
-0.25255454 0.14521046 0.58769447
-0.24495436 0.14479296 0.58359671
-0.23907049 0.14295621 0.58000004
-0.021243809 0.14982477 0.58700001
-0.011047619 0.14472382 0.58000004
-0.0039352742 0.14423026 0.58341515
0.0012604762 0.1433375 0.5870626
-0.25305498 0.15484846 0.5872857
-0.2451086 0.15497783 0.58230507
-0.024029955 0.1543882 0.58680004
-0.019029208 0.15335429 0.58766669
-0.0037396827 0.15127018 0.58900005
-0.25382012 0.16451797 0.58642852
-0.24695702 0.16461729 0.58126831
-0.030572955 0.16603352 0.58579999
-0.029004848 0.16352227 0.5836364
-0.25240669 0.17493661 0.58764285
-0.24734446 0.17484763 0.5823158
-0.036415748 0.17812711 0.58766669
-0.25235879 0.18535227 0.58735132
-0.24547504 0.18522918 0.58362502
-0.23973335 0.18560001 0.58000004
-0.063014939 0.18745099 0.58753854
-0.058322228 0.18898731 0.58883339
-0.035963811 0.18075842 0.58700001
-0.32272384 0.19867165 0.58876938
-0.31465456 0.19832285 0.5872308
-0.3072826 0.19870611 0.58588237
-0.25237933 0.19341317 0.58776194
-0.24553774 0.19511776 0.58292305
-0.061685935 0.19074415 0.58411109
-0.054520991 0.19467798 0.58452064
-0.048924655 0.1968199 0.58822227
-0.32473922 0.20506959 0.587421
-0.31512764 0.20391531 0.5828495
-0.30445346 0.20299891 0.58357537
-0.29558596 0.20608588 0.5856759
-0.28657734 0.20886001 0.58572733
-0.25190383 0.20595095 0.58777279
-0.24589796 0.20516835 0.58402181
-0.053416517 0.20511779 0.58433348
-0.049252063 0.20316604 0.58766669
-0.33208239 0.21718384 0.58850008
-0.32501405 0.21526654 0.58539689
-0.31804842 0.21297839 0.58107138
-0.28301668 0.21204399 0.58666664
-0.27433488 0.21545351 0.5847621
-0.26603934 0.21850766 0.58451217
-0.25197765 0.21424291 0.5875715
-0.24504323 0.21515363 0.58315998
-0.062021587 0.21774746 0.58146662
-0.05715175 0.21387886 0.58491665
-0.33377534 0.22565793 0.5868085
-0.32666737 0.22456364 0.58302224
-0.26130506 0.22061715 0.58414286
-0.25477853 0.22380291 0.58467799
-0.24559419 0.22609958 0.58419359
-0.23837128 0.22711855 0.58116668
-0.063913897 0.22570613 0.58320326
-0.059410479 0.22251049 0.58850002
-0.34123337 0.23869464 0.58833337
-0.3350991 0.23501866 0.58545613
-0.32778016 0.23455936 0.58087504
-0.24133487 0.2306762 0.58280009
-0.23722228 0.23151654 0.58092308
-0.071493886 0.23847079 0.58000004
-0.067318223 0.23430851 0.58033329
-0.34170935 0.24497499 0.58836371
-0.33494598 0.24486366 0.58482003
-0.32848257 0.24415241 0.58000004
-0.071734294 0.24632303 0.58691669
-0.068621717 0.2405242 0.58300006
-0.34153658 0.25275111 0.58853334
-0.33457178 0.25418368 0.58328938
-0.34105906 0.26757431 0.58900005
-0.33485121 0.26354834 0.58370835
-0.021298096 -0.041888338 0.59237498
-0.014513862 -0.041888531 0.59318525
-0.0076280278 -0.041385312 0.59642863
-0.020778572 -0.038994286 0.59775001
-0.014464844 -0.037405841 0.59713066
-0.006672814 -0.03786502 0.59750003
-0.22134477 0.0091276197 0.5990001
-0.21411875 0.0088740746 0.59900004
-0.20993525 0.0091276197 0.59900004
-0.23092878 0.01779886 0.59900004
-0.22433703 0.015205997 0.596389
-0.21520713 0.014113695 0.59359992
-0.20524558 0.012880303 0.59422719
-0.19422822 0.014654895 0.59418184
-0.18674205 0.016091522 0.59367442
-0.23279972 0.025751427 0.59823346
-0.2252733 0.024899377 0.59430164
-0.21855852 0.023804234 0.59044451
-0.18523017 0.020268572 0.59116673
-0.17242698 0.025757547 0.59380639
-0.16657837 0.02712585 0.59346426
-0.15765887 0.022505907 0.59080005
-0.23280366 0.035403349 0.5974595
-0.22517544 0.034656551 0.59217632
-0.16192064 0.030360002 0.59033334
-0.23408701 0.045453753 0.59692001
-0.22623856 0.045339841 0.59148771
-0.24074097 0.059329528 0.59900004
-0.23454803 0.055270255 0.59561414
-0.22631614 0.054695286 0.59137779
-0.24096918 0.064463817 0.59900004
-0.23473181 0.064842075 0.59498346
-0.22770399 0.064595357 0.59091306
-0.23451988 0.075230725 0.59528267
-0.22845021 0.075113162 0.59064704
-0.24074098 0.085571431 0.5990001
-0.23474407 0.08504989 0.59534931
-0.22797762 0.084522262 0.59068757
-0.24074097 0.090135239 0.59900004
-0.23492496 0.094811283 0.59563267
-0.22880915 0.094319187 0.59050012
-0.002549524 0.098597147 0.59499997
0.0013691429 0.099223629 0.59740001
-0.25272098 0.10953144 0.59900004
-0.24895583 0.10907506 0.59900004
-0.23153779 0.10073397 0.59200001
-0.22855389 0.10330801 0.59080005
-0.0011257143 0.10075144 0.59100002
0.0032160494 0.10480523 0.59462965
-0.26036534 0.11843087 0.59900004
-0.25447622 0.11476822 0.59650826
-0.24530305 0.11384318 0.59380895
-0.23512949 0.11389557 0.59318972
-0.22495551 0.11739644 0.59571803
-0.2191063 0.11907925 0.59540004
-0.0011238096 0.11575239 0.59000003
0.0033194874 0.11566903 0.59469235
-0.26163968 0.12581332 0.59866673
-0.25514358 0.12504995 0.59414816
-0.24910873 0.12392072 0.59043753
-0.22126096 0.12079112 0.59266675
-0.21487072 0.12271407 0.59172726
-0.20902859 0.12305715 0.59000003
-0.0027762773 0.12836087 0.59445459
0.0017510625 0.12329891 0.59723085
-0.26348981 0.13548408 0.59747374
-0.25557408 0.13486034 0.59271181
-0.24948573 0.13092382 0.59000003
-0.0033086131 0.13500111 0.59269559
0.00087106234 0.13670006 0.59469235
-0.26406777 0.14489633 0.59624535
-0.25719675 0.14479312 0.59123814
-0.0016904762 0.14083333 0.59150004
0.0029107486 0.14158437 0.59364295
-0.26433191 0.15499194 0.5949201
-0.25818199 0.15524562 0.59061116
-0.021739049 0.15815754 0.59140009
-0.01684865 0.15644923 0.59645844
-0.26434815 0.16469909 0.59460014
-0.25856763 0.16535394 0.59090912
-0.03215592 0.16929851 0.59085721
-0.024483511 0.16532905 0.59521061
-0.018193701 0.16261306 0.59700012
-0.26509294 0.17470679 0.59630609
-0.25724718 0.17582543 0.59150004
-0.032253589 0.1753134 0.5927667
-0.02770843 0.17408405 0.59518534
-0.26434943 0.18492812 0.59685415
-0.25715134 0.1835008 0.59138095
-0.055911116 0.18919492 0.59300005
-0.032392904 0.18151325 0.59390908
-0.029565714 0.18080571 0.597
-0.34232667 0.19552085 0.59878576
-0.3344031 0.19468623 0.59598678
-0.32517529 0.19421463 0.59521168
-0.31612191 0.19512236 0.59529221
-0.30668449 0.19863646 0.59479165
-0.26300871 0.19479178 0.59630567
-0.25661105 0.1959669 0.59141672
-0.053415108 0.19154342 0.59128571
-0.046106126 0.19683495 0.59464288
-0.35027239 0.2087943 0.5990001
-0.34352723 0.20624755 0.59789765
-0.33421952 0.20525205 0.59172708
-0.32837716 0.20048764 0.59000009
-0.30252483 0.20147869 0.5954138
-0.29511881 0.20495486 0.59578788
-0.28555593 0.20825449 0.59556109
-0.2783924 0.20993525 0.5990001
-0.26359275 0.20473136 0.59666675
-0.25660777 0.20456429 0.59157574
-0.05057143 0.20846668 0.59000003
-0.04525505 0.20490199 0.59557378
-0.35027239 0.21164668 0.59900004
-0.34477088 0.21496259 0.59568012
-0.33581805 0.21434459 0.59116662
-0.28070137 0.21024382 0.59280002
-0.27493244 0.21267003 0.59467751
-0.26516619 0.21639197 0.59529155
-0.25789478 0.2162479 0.59304345
-0.052915182 0.21622513 0.5923667
-0.047597338 0.21396463 0.59705734
-0.35024002 0.22629143 0.597
-0.34484819 0.22490722 0.59361678
-0.33830819 0.22328834 0.59056258
-0.26184195 0.22053254 0.59071434
-0.25488508 0.22187302 0.59079176
-0.24948573 0.2236381 0.59000003
-0.05529049 0.22499262 0.59442192
-0.049060956 0.22134478 0.59900004
-0.35121429 0.23769046 0.59600002
-0.34506854 0.2344802 0.59197611
-0.062290739 0.2364929 0.59263641
-0.056428198 0.2341093 0.59496373
-0.35214937 0.24397893 0.5959
-0.34702229 0.24529485 0.59224135
-0.072608575 0.2499086 0.59100002
-0.065019704 0.2449608 0.59322584
-0.058399525 0.24157906 0.59825003
-0.35184079 0.25785106 0.59740001
-0.34600851 0.25580373 0.59231818
-0.071712486 0.25352055 0.59344453
-0.066923812 0.25294459 0.59605265
-0.352047 0.26452622 0.59813637
-0.34551546 0.26427367 0.59422851
-0.33996573 0.26004001 0.59100002
-0.08556667 0.26746669 0.59500003
-0.35141334 0.27154669 0.5990001
-0.34796038 0.27091354 0.59660006
-0.020571429 -0.035999998 0.60000002
-0.015303891 -0.032627158 0.60074294
-0.0059396005 -0.032866612 0.60035497
-0.020880001 -0.027260002 0.60900003
-0.014663062 -0.025617609 0.60497344
-0.0059363348 -0.024998911 0.60523754
-0.012870287 -0.019246286 0.60869998
-0.0066680955 -0.019425953 0.60887504
-0.24330963 0.0063520926 0.60818189
-0.23471145 0.0045711105 0.60578805
-0.22554687 0.0050622025 0.60400021
-0.21573408 0.005662425 0.60370475
-0.20513092 0.0082214503 0.60178256
-0.19775762 0.0080133332 0.60100001
-0.24425954 0.015163734 0.60688001
-0.23523273 0.014438934 0.60201699
-0.22815239 0.011773143 0.60009998
-0.20285717 0.010285715 0.60000002
-0.19704384 0.010932064 0.6006667
-0.24486116 0.02490741 0.60629559
-0.23747785 0.024677439 0.60084385
-0.24490044 0.03488471 0.60617644
-0.23791039 0.034500867 0.60090482
-0.25114122 0.046982355 0.60853338
-0.24499303 0.044960707 0.60525942
-0.23867738 0.041899759 0.60062498
-0.25198764 0.055510372 0.60855561
-0.24516398 0.054826237 0.60382712
-0.24000001 0.054285716 0.60000002
-0.25246933 0.064264156 0.60811996
-0.24579124 0.065135874 0.60297626
-0.25220981 0.074839368 0.60804772
-0.24522364 0.07499814 0.60313219
-0.23971429 0.074857146 0.59999996
-0.25201795 0.084845044 0.6082353
-0.24559632 0.084619686 0.6030668
-0.25152192 0.091167629 0.60740006
-0.24545255 0.093182907 0.60396779
-0.0041621113 0.094872542 0.60308135
0.0034537276 0.097338907 0.60317242
-0.271667 0.10792779 0.608091
-0.26452407 0.10568301 0.60578948
-0.25499451 0.10581231 0.60398507
-0.24508744 0.10779638 0.60427999
-0.23887186 0.10887565 0.60628575
0.0078410897 0.10379735 0.6033572
0.011070635 0.10722968 0.6064167
-0.27326837 0.11470667 0.60713524
-0.26515821 0.11473604 0.6024822
-0.25885716 0.11085714 0.60000002
-0.24048764 0.11099429 0.60700005
-0.23469305 0.11219259 0.60468972
-0.22763161 0.11438605 0.60163647
0.0074538421 0.11494198 0.60183346
0.011818777 0.1148334 0.60525006
-0.27411851 0.12481439 0.60702509
-0.26652238 0.12481552 0.6015715
0.006063675 0.12547913 0.60411918
0.012528366 0.12265367 0.60747826
-0.28067544 0.13767201 0.60840005
-0.27469945 0.13520652 0.60509264
-0.26793826 0.13357565 0.6007368
0.0043046302 0.13524169 0.60525858
0.010422857 0.13897143 0.60800004
-0.28164011 0.14507814 0.60857701
-0.27490184 0.14521927 0.60456526
-0.26952383 0.14342856 0.60000002
0.0071645388 0.14336565 0.60600013
0.011703977 0.14342432 0.60723531
-0.28237367 0.15438423 0.60808343
-0.27519372 0.15482645 0.60325474
-0.26971433 0.15382858 0.60000002
-0.012324005 0.15499067 0.60151726
-0.0080857156 0.15471746 0.60666674
-0.28208506 0.16475317 0.60811764
-0.27533194 0.16527762 0.60360396
-0.2697143 0.16685715 0.60000002
-0.020571429 0.16914286 0.60000002
-0.015646815 0.16585568 0.60390919
-0.28188056 0.17447825 0.60864294
-0.27484563 0.17487308 0.60293764
-0.2697143 0.17885715 0.60000002
-0.023201589 0.17548282 0.60410005
-0.01807069 0.17214945 0.60566676
-0.3533749 0.18789335 0.60772729
-0.34521529 0.18624707 0.60643059
-0.33500591 0.18682271 0.60434729
-0.32639089 0.18837266 0.60368282
-0.31912288 0.18958572 0.60050005
-0.28072 0.18212001 0.60900009
-0.27514207 0.18517353 0.60456085
-0.26946035 0.18514287 0.59999996
-0.025414066 0.18191607 0.60861552
-0.36160365 0.19720002 0.60900009
-0.3558526 0.19484276 0.60748941
-0.34604812 0.19367404 0.60090929
-0.33971146 0.19044381 0.60049999
-0.32212704 0.19080383 0.60833335
-0.31390953 0.19609077 0.60516679
-0.30547532 0.19830547 0.60386205
-0.2993643 0.19948097 0.60275006
-0.28058833 0.19594723 0.60871434
-0.27476224 0.19510795 0.60469097
-0.26818731 0.19523202 0.60033333
-0.041420292 0.19688076 0.60325003
-0.037895873 0.19763608 0.60600007
-0.36223397 0.20529279 0.60881811
-0.35550624 0.20449774 0.60563034
-0.34735781 0.20364769 0.60032266
-0.30142859 0.20028573 0.60000002
-0.29480967 0.20292898 0.60296613
-0.28544396 0.20729481 0.60453844
-0.27472603 0.20503019 0.60420007
-0.26864031 0.20506346 0.60015386
-0.040806387 0.20423844 0.60100007
-0.037623279 0.20408201 0.60470372
-0.35257143 0.21142857 0.60000002
-0.34800002 0.21371429 0.60000002
-0.2809543 0.21042667 0.60700005
-0.27461734 0.21108085 0.60356534
-0.26757953 0.21357739 0.60094124
-0.043354053 0.21605323 0.60345465
-0.038957149 0.21274455 0.60825008
-0.36525357 0.2277922 0.60770839
-0.35621345 0.22754404 0.60313344
-0.051012389 0.22755176 0.6018334
-0.046798047 0.22525477 0.60565716
-0.36400098 0.23053303 0.60666674
-0.051566295 0.23524839 0.6022175
-0.047971677 0.23439518 0.60667741
-0.061008573 0.24776097 0.60150003
-0.055151433 0.24515146 0.6032694
-0.048948571 0.24098288 0.60825002
-0.3556394 0.25909778 0.60100001
-0.065478101 0.25567275 0.60218185
-0.058482539 0.25118732 0.60400009
-0.3640562 0.26509175 0.60694999
-0.357196 0.26496679 0.60133344
-0.074094556 0.26568168 0.60351241
-0.068158895 0.26339847 0.60650003
-0.073994294 0.27074003 0.60699999
-0.021403572 -0.023294523 0.61150002
-0.019182224 -0.022087937 0.61033338
-0.023418821 -0.013595687 0.61461765
-0.01544086 -0.014534458 0.61088741
-0.0061606085 -0.014869789 0.61053199
-0.26151279 -0.0016506668 0.61900002
-0.2542682 -0.0030313556 0.61734629
-0.24502355 -0.0040336507 0.615125
-0.23483783 -0.0031054153 0.61277145
-0.22586112 -0.0024720884 0.61292315
-0.2170815 -0.0015610583 0.61422229
-0.023970922 -0.0058781803 0.61753321
-0.015145405 -0.0053185523 0.61428177
-0.0069491281 -0.0052859462 0.61570722
-0.26115906 0.0021615874 0.61900002
-0.25501561 0.0045142509 0.61559254
-0.24662502 0.0029082145 0.61137503
-0.23896761 0 0.61049998
-0.22356459 0.00061980961 0.61046672
-0.21471725 0.0020955184 0.61385298
-0.20745943 0.0065180953 0.61120003
-0.021212749 0.0017227838 0.61869228
-0.014520869 0.0044523804 0.61783826
-0.0080797365 0.0044288998 0.61820704
0.033838667 0.0090786684 0.61900002
-0.26119107 0.015406009 0.6185385
-0.25482193 0.015532749 0.61382705
-0.24929312 0.013555556 0.61000007
-0.011554667 0.011083048 0.61900002
-0.009432381 0.010611429 0.61900002
0.025346491 0.015587727 0.61892581
0.034710601 0.014801571 0.61890459
0.041259475 0.01545598 0.61888903
-0.26355103 0.02582291 0.61769223
-0.25496483 0.025086664 0.61260432
-0.24980953 0.024593651 0.61000007
0.026634378 0.024125127 0.61899996
0.035157174 0.025028313 0.61881232
0.044324368 0.025286835 0.61877257
0.050699048 0.021812383 0.61900002
-0.2640608 0.035095945 0.61732602
-0.25500789 0.034932945 0.61203444
-0.24980953 0.03532191 0.61000007
0.026949665 0.035287213 0.61900008
0.035131555 0.03367196 0.61884779
0.043035239 0.033720773 0.61899996
-0.26385799 0.044875856 0.61675537
-0.25574514 0.044741854 0.61210006
-0.26440033 0.055145394 0.61656511
-0.25690165 0.054752547 0.61197239
-0.27000192 0.068384759 0.61900002
-0.26470739 0.065049261 0.61581248
-0.25730821 0.065296523 0.61143339
-0.27000192 0.073690474 0.61900002
-0.26444417 0.074548841 0.61538011
-0.25733536 0.074967861 0.61158061
-0.27055764 0.083021432 0.61825001
-0.26447955 0.083168216 0.61523688
-0.25681272 0.08477015 0.61161774
-0.28196526 0.097543761 0.61800009
-0.27477494 0.096829139 0.61588651
-0.26507768 0.09769167 0.61517495
-0.25818327 0.097704001 0.61500001
0.0088095237 0.098640002 0.61650002
0.011790477 0.098450482 0.61900002
-0.29004571 0.10965143 0.61900002
-0.28466809 0.10515345 0.61677539
-0.27531657 0.10404357 0.61159271
-0.26485032 0.10093429 0.61120003
-0.255092 0.10169268 0.61463344
-0.24588168 0.10388044 0.61377287
-0.23852488 0.10704545 0.61085719
0.0094247628 0.10072666 0.61849999
0.014258256 0.10528836 0.61508334
-0.2908124 0.11490977 0.61875004
-0.28525347 0.11507502 0.61513728
-0.27873722 0.11501173 0.61121058
-0.2358654 0.11094984 0.611
0.016566334 0.11463594 0.61335003
0.020022225 0.11777715 0.61833334
-0.29147595 0.12508655 0.61843753
-0.28440517 0.12497172 0.61318535
-0.27866495 0.12480088 0.61027282
0.0093028573 0.1284962 0.61049998
0.015673915 0.12587519 0.61552793
0.020043811 0.12085237 0.61900002
-0.29255182 0.13526227 0.61727285
-0.28519589 0.13457553 0.61232692
0.0087522231 0.13358794 0.61250007
0.013685822 0.13355578 0.61768579
-0.29261857 0.14510936 0.61677784
-0.28650919 0.14517932 0.61144823
0.014882381 0.14293113 0.61765021
-0.29393592 0.15427917 0.61646438
-0.28747195 0.15531737 0.61128581
-0.0066095241 0.15850772 0.61288899
-0.29353324 0.16578244 0.61712897
-0.28679478 0.16498214 0.61196166
-0.011465142 0.16512983 0.61114997
-0.0062985835 0.16354063 0.6155405
-0.36142537 0.17719224 0.61515385
-0.355434 0.17647992 0.61594421
-0.34530565 0.17795499 0.61595738
-0.33862397 0.17871757 0.61728573
-0.29295436 0.17422457 0.61738473
-0.28637141 0.1753221 0.61173338
-0.020948572 0.17922667 0.611
-0.015322013 0.17570937 0.6148572
-0.009432381 0.17096192 0.61900002
-0.36165085 0.18326053 0.61258829
-0.35554424 0.18364114 0.61106676
-0.34443602 0.18117927 0.61128569
-0.33545139 0.18291393 0.6143077
-0.32420218 0.18753475 0.61316675
-0.31900573 0.18952 0.61800003
-0.29183778 0.1849654 0.61655551
-0.28493857 0.18504639 0.61150002
-0.023830477 0.18368018 0.61033344
-0.017504048 0.18162373 0.61543757
-0.36268049 0.19109763 0.61175001
-0.32125482 0.19146171 0.61176932
-0.31513232 0.19294478 0.61399996
-0.30548683 0.19721441 0.6141482
-0.29513571 0.19529095 0.61487508
-0.28452203 0.19364211 0.61142433
-0.041196 0.19330381 0.61620003
-0.035928115 0.1965358 0.61534286
-0.36541906 0.20507619 0.61000001
-0.30175495 0.20039366 0.61166668
-0.29387751 0.20196663 0.61355561
-0.28537747 0.20523448 0.61241084
-0.032913774 0.20472573 0.61360425
-0.029404763 0.20171382 0.61750007
-0.040733334 0.21996 0.611
-0.0349041 0.21494731 0.61497831
-0.04215695 0.22611187 0.61316669
-0.037841078 0.22373931 0.61752182
-0.043190677 0.23483756 0.61205143
-0.03929181 0.23423962 0.61580002
-0.050441146 0.24707125 0.61300004
-0.044848308 0.24562079 0.61567855
-0.06305445 0.25856113 0.61399996
-0.055534609 0.25550765 0.61816669
-0.047960002 0.2525886 0.61842859
-0.070876189 0.26956192 0.61000001
-0.064316951 0.26492932 0.61455005
-0.059840005 0.26106668 0.61600006
-0.071201041 0.27263013 0.61190909
-0.067654051 0.27341762 0.61706257
-0.26139051 -0.01112254 0.62566674
-0.25537843 -0.0113083 0.62485719
-0.24478321 -0.011214678 0.62547058
-0.23684637 -0.011127619 0.62588894
0.025759047 -0.010782857 0.62900001
-0.2617197 -0.0061276197 0.62369239
-0.25590226 -0.0075519565 0.62229627
-0.24423122 -0.0085952785 0.62139118
-0.23516186 -0.007555854 0.62447047
-0.22898024 -0.0058107148 0.62612504
-0.027112732 -0.0024742859 0.62127268
-0.0024943722 -0.0028223377 0.62654549
0.0055708429 -0.0025329671 0.62849998
0.015189626 -0.0048270077 0.62728578
0.025066935 -0.0053776996 0.62663895
0.034760196 -0.0036173875 0.62705135
0.044064187 -0.0024980544 0.62817389
0.050919048 -0.0011980953 0.62900001
-0.27121097 0.0053728572 0.62725002
-0.26507536 0.0051667681 0.62208527
-0.21145204 0.002914632 0.62368184
-0.20702912 0.0037572796 0.62750006
-0.024827309 0.0055332324 0.62210536
-0.018017143 0.0091561908 0.62024999
-0.00344288 0.0049335994 0.6225813
0.0047692182 0.0047672899 0.6262098
0.01483344 0.0047436506 0.62311119
0.024891129 0.0047360389 0.62225956
0.035132371 0.0040297704 0.62251616
0.044821426 0.0049006282 0.62353957
0.054678041 0.0054160529 0.62680966
0.062813975 0.0080604451 0.62853342
-0.2747128 0.015478618 0.62637508
-0.26616418 0.014502141 0.62152505
-0.024009062 0.014590606 0.6246897
-0.015065891 0.015107477 0.62133926
-0.0052588377 0.014868391 0.62165093
0.0047455826 0.014833096 0.62311107
0.014789407 0.014791189 0.621297
0.023034075 0.012206136 0.6201666
0.038971432 0.010628571 0.62
0.046139117 0.014544794 0.62107402
0.055201251 0.014835503 0.62320322
0.064173743 0.015248207 0.62609631
-0.27413818 0.025440902 0.62494737
-0.2676537 0.023233905 0.62080002
-0.022791257 0.021664985 0.62776476
-0.014352347 0.023641722 0.62590206
-0.0052611423 0.024898183 0.62562859
0.0047459844 0.024941729 0.62344444
0.014792012 0.02485781 0.6214028
0.023064585 0.02540086 0.62023836
0.031738095 0.022585712 0.61999995
0.046933845 0.022443935 0.62013328
0.055275925 0.024993312 0.6227001
0.064981282 0.02503215 0.62590289
0.071013346 0.025865717 0.62870008
-0.27499458 0.035035718 0.62565011
-0.26939866 0.035133339 0.62071437
-0.0022351749 0.033602159 0.62853342
0.0047616665 0.035174713 0.62594444
0.014808752 0.034956526 0.62207818
0.024286766 0.034741841 0.62046564
0.033929098 0.037669737 0.6201666
0.047129642 0.036196433 0.62050009
0.055129535 0.034973431 0.62242198
0.064773016 0.035092752 0.62516135
-0.28035429 0.043730475 0.62900001
-0.27518439 0.045081735 0.62504458
-0.26928765 0.044340007 0.62075007
0.006183737 0.044455975 0.62782711
0.014990502 0.044828914 0.62420911
0.024797194 0.044859726 0.6222052
0.034975477 0.045057416 0.62245852
0.044998929 0.045001023 0.6224876
0.055251475 0.044560388 0.62376577
0.063969828 0.043716885 0.62834209
0.070687622 0.043730475 0.62900001
-0.28170249 0.055454481 0.62880009
-0.275567 0.054918315 0.62471163
-0.269344 0.053159244 0.62019998
0.0074050217 0.051075157 0.62890917
0.015739791 0.053581182 0.62746346
0.025308575 0.055101011 0.62652785
0.035160415 0.055428859 0.62571877
0.044682216 0.055429567 0.62647635
0.05356659 0.053386211 0.62765229
0.061701901 0.050320003 0.62900001
-0.28175023 0.065709166 0.62793761
-0.27492952 0.064852342 0.62344903
-0.26925713 0.0643619 0.62
0.033546668 0.061102852 0.62900001
-0.28254139 0.073029719 0.62853342
-0.27540094 0.075233333 0.62347925
-0.26925713 0.077942863 0.62
-0.29386887 0.088344954 0.62805003
-0.28703526 0.088332385 0.62716669
-0.2731984 0.080809258 0.62128574
-0.26675048 0.089714289 0.62800002
-0.30090877 0.09697672 0.6285556
-0.2945329 0.094598584 0.62498045
-0.28563982 0.093892746 0.62216365
-0.27469417 0.092585444 0.62395352
-0.26553079 0.094827563 0.62668902
-0.25744048 0.098253205 0.623375
0.0048784763 0.095495701 0.62395561
0.011824 0.096961521 0.62080002
-0.30257154 0.10545451 0.62776929
-0.29532337 0.10512848 0.62358838
-0.28886095 0.10132571 0.62
-0.25522256 0.10063174 0.62033337
0.017002204 0.10269344 0.62121058
0.022489766 0.10643598 0.62448382
-0.30415615 0.11556329 0.62724251
-0.29643407 0.11479333 0.62308514
0.023730751 0.11463192 0.62330353
-0.30470315 0.12489627 0.62604004
-0.29653341 0.1249465 0.62147367
0.018501587 0.12714921 0.62
0.022022476 0.12366571 0.62309998
-0.30438209 0.13496813 0.62466657
-0.29761621 0.13480225 0.62100005
0.01578935 0.13710423 0.62027276
-0.31030667 0.1485638 0.62900007
-0.30427372 0.14521715 0.62392682
-0.29782352 0.14516783 0.6205557
0.017103419 0.14300114 0.62047052
0.021535238 0.1444335 0.62091666
-0.31030667 0.15575239 0.62900007
-0.30432412 0.15479772 0.62415391
-0.29856968 0.156527 0.6205833
0.003535873 0.15692253 0.62729162
-0.36348408 0.16646045 0.62531126
-0.35925525 0.16945969 0.62800002
-0.30459633 0.16441037 0.62548572
-0.29815653 0.16398443 0.62061113
-0.002991078 0.16712925 0.62252635
0.0014682251 0.16291223 0.62699997
-0.36374152 0.17244586 0.62378567
-0.35500947 0.1726363 0.62464118
-0.34694612 0.17577638 0.62329412
-0.33613965 0.17851098 0.62173688
-0.30445403 0.17584835 0.62654054
-0.29762068 0.1753075 0.62081259
-0.011540477 0.17727382 0.62150002
-0.0063366387 0.17425153 0.62544113
-0.37141722 0.18156859 0.62100005
-0.36905146 0.18156859 0.62100005
-0.33258349 0.18245476 0.6225
-0.32532045 0.18646769 0.62463641
-0.31755945 0.18939324 0.62592864
-0.30401573 0.18325225 0.62546432
-0.29742455 0.18455641 0.62139291
-0.012422668 0.18466915 0.62709993
-0.31319627 0.1914829 0.62381244
-0.30524668 0.1957255 0.62412512
-0.2964913 0.19792385 0.62296659
-0.033663716 0.19470644 0.62122589
-0.027703105 0.1975701 0.62534779
-0.2942597 0.20094213 0.62226671
-0.026043624 0.20466048 0.62505883
-0.031123176 0.21648699 0.62050003
-0.027428176 0.21403943 0.62623531
-0.033971362 0.22524914 0.62331027
-0.029329523 0.22147048 0.62849998
-0.036634002 0.23462503 0.6252647
-0.041113444 0.24577567 0.62266666
-0.037996002 0.24368028 0.62634999
-0.053379904 0.25672898 0.6214
-0.048019055 0.25660655 0.62371427
-0.039474286 0.25000381 0.62800002
-0.060902316 0.26729661 0.62171435
-0.055817101 0.26449296 0.62560874
-0.063785255 0.27545729 0.62403709
-0.058242723 0.27141091 0.62771434
-0.06409809 0.28095335 0.62900001
-0.2535238 -0.014890412 0.63425004
-0.24734275 -0.014505097 0.63435304
-0.0024256085 -0.012129948 0.63677782
0.005273602 -0.012980122 0.63561535
0.01518614 -0.013833761 0.63412768
0.024530955 -0.013611537 0.63333333
0.034155052 -0.013285524 0.63524997
0.042768795 -0.01183707 0.63599998
-0.22532423 -0.0042144628 0.63551861
-0.21900669 -0.0036399995 0.63700002
-0.0022115873 -0.0077415872 0.63308334
0.004362816 -0.0070339954 0.63128263
0.013211667 -0.0093090478 0.63062507
0.036189027 -0.0081710462 0.63076001
0.045566875 -0.0070451568 0.63156098
0.054649275 -0.0043729953 0.63342237
0.062407106 -0.0020936797 0.63563639
-0.28004384 0.0066104764 0.63100004
-0.2762509 0.0060065305 0.63057142
-0.20419429 0.0036026668 0.63060009
-0.030000001 0.0090000005 0.63000005
0.057095937 0.00098199141 0.6304546
0.064975075 0.0040928684 0.6324445
0.071780376 0.0078276917 0.63623089
-0.27671003 0.011404287 0.6302501
-0.030000001 0.010800001 0.63000005
0.069046043 0.013508732 0.63041675
0.075089753 0.015354093 0.6333729
0.081677139 0.017993335 0.63683337
-0.28091145 0.026109528 0.6302501
-0.27880001 0.02306667 0.63000005
-0.022222383 0.02614714 0.63281256
-0.017209232 0.027846014 0.63138467
0.076070391 0.024468431 0.63292593
0.081900485 0.024874285 0.63700008
-0.28460976 0.035561807 0.63312203
-0.27960002 0.035400003 0.63000005
-0.021031749 0.030737778 0.63700002
-0.014714647 0.03415731 0.63444823
-0.0064845583 0.035759479 0.63111758
0.069600008 0.036600001 0.63000005
0.075327948 0.034948312 0.63268048
0.081887521 0.034911603 0.63717651
-0.29087114 0.045913335 0.63716674
-0.28562444 0.045304615 0.63317961
-0.012481524 0.043319315 0.63740003
-0.0054372023 0.045245897 0.63339061
0.0011402859 0.046046384 0.63035011
0.067295909 0.046743162 0.63046163
0.075279139 0.04509959 0.63289827
0.081368253 0.043003496 0.63600004
-0.29136184 0.055789176 0.63526326
-0.28567913 0.054589313 0.63145161
-0.004272155 0.054051206 0.63595235
0.0043427958 0.055463713 0.63272142
0.01291724 0.056962389 0.63090008
0.057092484 0.056612011 0.63035011
0.064678639 0.054925077 0.63230008
0.073189102 0.053011201 0.63656002
-0.29165483 0.065018363 0.63488245
-0.28673422 0.064700007 0.63179415
-0.0016203176 0.061166987 0.63800001
0.0058059301 0.063922629 0.6363396
0.015090715 0.064614661 0.634
0.024509508 0.06472823 0.63162714
0.034972496 0.065217189 0.6316272
0.04528024 0.065017469 0.63285965
0.055015266 0.064695403 0.63476568
0.062973939 0.064015411 0.63648576
-0.29174542 0.070518106 0.63466668
-0.28674182 0.072112665 0.63100016
0.01659598 0.0708398 0.6375556
0.025226749 0.071638502 0.63699996
0.034698021 0.07256905 0.63658977
0.043886922 0.07141915 0.63721061
0.056508571 0.070483811 0.63800001
-0.31478083 0.08641538 0.63771439
-0.30445445 0.085049905 0.63573998
-0.29560599 0.083934367 0.63410431
-0.28478524 0.086727917 0.63430947
-0.27745923 0.08905296 0.63610005
-0.31236008 0.095233299 0.63604355
-0.30554736 0.094520308 0.63215917
-0.28162241 0.09007144 0.63050008
-0.27393752 0.09031143 0.63050008
-0.26880002 0.090000004 0.63000005
0.016003046 0.096683532 0.6365428
0.021754017 0.097241089 0.63700008
-0.31371018 0.10551648 0.63631433
-0.30704588 0.10399278 0.63136852
0.017434668 0.1012122 0.63560009
0.025354749 0.10473236 0.63493943
0.031220477 0.10881143 0.6365
-0.32057142 0.1147481 0.63750005
-0.3150388 0.11467979 0.63467324
-0.30858558 0.11420398 0.63058341
0.028592 0.11401125 0.63070005
0.032260623 0.11490717 0.63597143
-0.32168403 0.12551382 0.63790011
-0.31469426 0.12507929 0.63316673
-0.30960003 0.12 0.63000005
0.026128003 0.12592642 0.63239998
0.032141589 0.1215889 0.6367501
-0.32208481 0.13442686 0.63725001
-0.3150607 0.13524151 0.63269407
0.019230478 0.13821904 0.63100004
0.022934567 0.13458428 0.6326766
-0.32101673 0.1451471 0.63677782
-0.31482914 0.14449562 0.63228571
0.019230478 0.14062287 0.63100004
0.025591116 0.14517979 0.63584614
0.031012697 0.14724298 0.63711113
-0.32179272 0.15360709 0.6378572
-0.31575838 0.15515327 0.63353193
0.0081428569 0.15734644 0.63300002
0.01092 0.15834001 0.63700002
0.029074287 0.15021715 0.63600004
0.03094 0.15045334 0.63700002
-0.3616915 0.16633987 0.63085723
-0.35917908 0.16897905 0.63066673
-0.3210659 0.16478629 0.63800001
-0.31434745 0.16510099 0.63229799
-0.30960003 0.16500002 0.63000005
0.006185764 0.16519976 0.63539469
0.010937143 0.16041143 0.63800001
-0.36092573 0.17134857 0.63800001
-0.35478026 0.17275192 0.63424009
-0.34578213 0.17654702 0.63341683
-0.33544523 0.1789619 0.6348421
-0.32109296 0.17391406 0.63800001
-0.31447002 0.17463894 0.63348788
-0.30900002 0.17460001 0.63000005
-0.0029194562 0.17751199 0.6321429
0.0026095237 0.17260297 0.63635004
-0.33290204 0.18100557 0.63334781
-0.3251211 0.18458048 0.63432086
-0.31556776 0.18697186 0.63470721
-0.30922228 0.18779686 0.63333338
-0.013542858 0.18771431 0.63000005
-0.0058232471 0.18374486 0.63190931
-0.31191346 0.19103365 0.63388896
-0.30521724 0.19365942 0.63128585
-0.29880002 0.19680001 0.63000005
-0.03084643 0.19351001 0.63200003
-0.025667623 0.19667491 0.63283336
-0.021326289 0.20443526 0.63080007
-0.018231748 0.20560321 0.63466668
-0.022722099 0.21552925 0.63236678
-0.018460119 0.21473345 0.63556254
-0.030935716 0.22917239 0.63075006
-0.026037259 0.22430858 0.63421947
-0.01944381 0.22178096 0.63800001
-0.031848092 0.23497194 0.63099998
-0.028174348 0.23397107 0.6358
-0.03367864 0.24514186 0.63215387
-0.029142857 0.24467953 0.63750005
-0.044893336 0.25965339 0.63700002
-0.035234284 0.25196168 0.63417661
-0.051745806 0.26768416 0.63045466
-0.046423003 0.26314217 0.63549995
-0.060816009 0.27788118 0.63100004
-0.05646624 0.27461758 0.63195467
-0.061503701 0.2818599 0.63177782
-0.05789889 0.28204 0.63550001
-0.0012266667 -0.020853335 0.64400005
0.0050556194 -0.022687074 0.64520001
0.015547771 -0.023215137 0.64492112
0.024361674 -0.022353293 0.6433599
0.042648576 -0.02101524 0.64900005
-0.26003239 -0.019718096 0.64700001
-0.25452304 -0.018968098 0.64241672
-0.24476106 -0.016569125 0.64379078
-0.23867556 -0.013383651 0.64341664
-0.0017466669 -0.016419593 0.64185727
0.0043645022 -0.017835326 0.64103043
0.015006276 -0.018810647 0.64076471
0.025135158 -0.018217061 0.64112514
0.035531159 -0.017821226 0.64204758
0.044889353 -0.015892141 0.64502329
0.0531446 -0.013214475 0.64708006
-0.2249182 -0.0073925927 0.64077783
0.056786332 -0.0088555738 0.64241183
0.065261982 -0.0052700001 0.64269441
0.072415002 -0.0030740474 0.64506251
0.069040284 0.0015684356 0.64071441
0.075412191 0.0045697517 0.64166009
0.082490228 0.0083954977 0.64636362
0.079733342 0.011653334 0.64400005
0.085375659 0.015297418 0.64511907
0.091066048 0.018542858 0.64900005
-0.026255917 0.02827796 0.64750004
0.086983576 0.025112808 0.64314997
0.091824949 0.026490562 0.64827275
-0.29219049 0.039040003 0.64050007
-0.023868479 0.035100866 0.64660013
-0.019123811 0.037636828 0.64083338
0.08689943 0.034829218 0.64300013
0.091762014 0.035328742 0.64741182
-0.29260954 0.041191429 0.64075005
-0.022903591 0.044255305 0.64709681
-0.016771568 0.045528501 0.64217079
0.085630812 0.044935759 0.64589995
0.091408096 0.043027781 0.64850008
-0.021316191 0.05159143 0.64875007
-0.015058842 0.054396022 0.64474547
-0.0077707372 0.057607707 0.64100009
0.069485717 0.059733339 0.64000005
0.075763553 0.056690469 0.6418668
0.08234828 0.054570623 0.64711541
-0.012603361 0.062421855 0.64629412
-0.005520036 0.065242305 0.64329618
0.0021829575 0.067907274 0.64084208
0.067495845 0.065831356 0.6426819
0.07452178 0.064487062 0.64653182
0.081434049 0.061655 0.64900011
-0.31122413 0.076416671 0.64625001
-0.30470657 0.075752176 0.64469469
-0.29610598 0.078749113 0.64560002
-0.0033496604 0.072054833 0.64742869
0.0054946039 0.073980674 0.64435428
0.01522621 0.075559191 0.64265996
0.024845906 0.076985821 0.64177507
0.034829527 0.07802967 0.64161539
0.045154415 0.076510191 0.6421957
0.054458357 0.075020216 0.6431089
0.06557247 0.073280692 0.6480608
0.07098788 0.072671011 0.64763635
-0.31486428 0.084554285 0.64156103
-0.30841908 0.0816762 0.6400001
-0.29312864 0.081245832 0.64170587
-0.28686059 0.08351884 0.64222229
0.0079838093 0.087143809 0.64450002
0.015791431 0.08134082 0.64842862
0.025759853 0.082734957 0.64642316
0.03474272 0.082846515 0.64582765
0.044711754 0.082491517 0.64776188
0.053175449 0.081270054 0.64755559
-0.32302716 0.098436505 0.64666665
-0.31759158 0.09404783 0.64211112
0.0075368132 0.092895821 0.64100003
0.012301299 0.094088309 0.64000005
0.026487621 0.099168569 0.64674997
0.030857144 0.099977143 0.648
-0.33088702 0.10590033 0.64900005
-0.32472295 0.10529127 0.64390016
-0.3185218 0.10369891 0.64050007
0.027493441 0.10246044 0.64466661
0.033775516 0.10647622 0.64473528
-0.33312547 0.11878477 0.64671433
-0.3258515 0.11550599 0.64140016
0.037399385 0.11441672 0.64429408
0.040794287 0.11558381 0.64900005
-0.33473474 0.12522653 0.64700001
-0.32661846 0.12474691 0.64111549
0.029257143 0.12921906 0.64000005
0.034929574 0.12533106 0.64299995
-0.3406629 0.13577144 0.648
-0.33557829 0.13506131 0.64678258
-0.32777685 0.13490614 0.64199996
0.027938053 0.13628583 0.64256519
0.031374969 0.13534395 0.64592862
-0.33514839 0.14383245 0.64724243
-0.32674044 0.14522386 0.64151531
0.02779633 0.14238219 0.64242864
0.032911912 0.14459357 0.64583337
-0.33391428 0.15507951 0.64715385
-0.3269192 0.15502186 0.64217657
0.0093460325 0.1568508 0.64000005
0.015589968 0.15629593 0.64378041
0.021223623 0.15695088 0.64780003
0.036446907 0.15134621 0.64862502
-0.36269808 0.16663556 0.64272738
-0.35739312 0.16802752 0.64378792
-0.33372378 0.16496164 0.64669228
-0.32679051 0.16551761 0.64250004
0.0093536517 0.16815749 0.64050007
0.014770497 0.16415595 0.64460456
0.020950476 0.16082476 0.64700001
-0.36266673 0.17066668 0.64000005
-0.35375071 0.17188987 0.64251524
-0.3448348 0.1750228 0.64385998
-0.33514407 0.17626907 0.64348006
-0.326157 0.17527787 0.64137506
0.0054866341 0.17583826 0.64200002
0.011794559 0.17231999 0.6468572
-0.33036193 0.18041906 0.64000005
-0.32441455 0.18243061 0.64093339
-0.31775331 0.18614978 0.6402728
-0.0012361906 0.18728288 0.64900005
0.0022010028 0.18286645 0.64499998
-0.31695241 0.19017144 0.64000005
-0.022647541 0.19714034 0.64420831
-0.018017143 0.19833727 0.64582354
-0.020756191 0.2002362 0.64100003
-0.014326744 0.20408201 0.64311987
-0.0095978845 0.20650053 0.64788896
-0.014073736 0.21521905 0.6456579
-0.0098590478 0.21073714 0.64700001
-0.022407623 0.22757079 0.64085716
-0.017005192 0.22359055 0.64418191
-0.0239069 0.23563416 0.64341462
-0.018930797 0.23483378 0.64820009
-0.031133335 0.24968383 0.64100003
-0.025047056 0.24419287 0.64452273
-0.01974857 0.24068572 0.648
-0.040605716 0.25963047 0.64600003
-0.033171214 0.25664479 0.64383334
-0.028238518 0.25408617 0.64772218
-0.042599328 0.26524374 0.64364278
-0.037196193 0.26332471 0.64626092
-0.052630961 0.2777493 0.64362496
-0.04585563 0.27431601 0.64708823
-0.053505037 0.28314504 0.64552391
-0.049447626 0.28123337 0.64900005
-0.001252381 -0.026927143 0.65750003
0.0051523806 -0.027486701 0.65486205
0.012770287 -0.027525146 0.65090007
0.044015236 -0.021080002 0.65100002
0.04837225 -0.01913524 0.6511429
0.051022224 -0.018665399 0.65333337
0.087003417 0.0071602017 0.65547359
0.091326475 0.0077558095 0.65680003
0.089056768 0.012187049 0.65300006
0.093251109 0.015166513 0.65332258
-0.03273841 0.026246985 0.65619051
-0.029000679 0.025351297 0.65385723
0.095940448 0.025129007 0.6546061
0.10032763 0.026335621 0.65840006
-0.032703176 0.034417942 0.65608329
-0.028662859 0.035930883 0.65152383
0.096619546 0.034532767 0.65622216
0.10026667 0.030080004 0.65800005
-0.030997144 0.043519046 0.65750003
-0.027199196 0.045790188 0.65242302
0.088833332 0.048595242 0.65000004
0.093655325 0.045210481 0.65199995
-0.024372274 0.054618571 0.6541667
-0.018955104 0.058458239 0.65100002
0.087328643 0.05515537 0.65228581
0.092111804 0.053636339 0.65484619
