# .PCD v0.7 - Point Cloud Data file format
VERSION 0.7
FIELDS x y z
SIZE 4 4 4
TYPE F F F
COUNT 1 1 1
WIDTH 1396
HEIGHT 1
VIEWPOINT 0 0 0 1 0 0 0
POINTS 1396
DATA ascii
-0.1216381 0.23894605 0.62
-0.11476468 0.23494488 0.62163752
-0.10481622 0.23464753 0.62592113
-0.097298697 0.2350574 0.62842858
-0.13113809 0.2489862 0.62024999
-0.12465283 0.24569441 0.62154394
-0.11494 0.24480562 0.62430775
-0.10503807 0.24446036 0.62773347
-0.098563544 0.24178939 0.62885714
-0.14138579 0.2565124 0.62015384
-0.13481669 0.25532696 0.62161225
-0.12485676 0.25510678 0.62421322
-0.11596449 0.25392476 0.62751162
-0.10683016 0.2508013 0.62900001
-0.14371513 0.26542369 0.62100011
-0.13538556 0.26491588 0.62334347
-0.12518817 0.26508054 0.62643415
-0.11862211 0.26546806 0.62878263
-0.15227549 0.2746906 0.62093753
-0.14510919 0.2748023 0.62311774
-0.13519728 0.27471358 0.62645775
-0.12599829 0.27258915 0.62810534
-0.11980952 0.27076954 0.62900001
-0.14395098 0.28124142 0.62674999
-0.13813607 0.28140357 0.62828577
0.0783519 -0.10143286 0.63775003
0.081602544 -0.1012435 0.63783336
0.02241143 -0.090857148 0.63600004
0.077489115 -0.094328284 0.63739133
0.083789267 -0.095391728 0.63751853
0.00893181 -0.081389338 0.634
0.015043143 -0.085903168 0.6337027
0.021431534 -0.087870903 0.63288897
0.057186197 -0.088180959 0.63200003
0.061130475 -0.088970959 0.63550001
0.076443583 -0.087002516 0.63260007
0.081988752 -0.088264585 0.63554555
0.004885715 -0.075839885 0.63258827
-0.016626667 -0.042869899 0.63130438
-0.012584858 -0.037148196 0.63220006
-0.007934859 -0.032755621 0.63110012
-0.16375048 -0.020620191 0.63679999
-0.15720654 -0.020926531 0.63557148
-0.0048804483 -0.027571209 0.63094121
-0.17137209 -0.01719873 0.63733339
-0.16509785 -0.018479887 0.63429409
-0.15461974 -0.017820073 0.63346159
-0.0022814819 -0.014944866 0.63349998
0.00024000001 -0.012254858 0.63080007
-0.0012104763 -0.0090780957 0.63550007
0.0024054097 -0.0054931049 0.63224
0.0078359311 0.003730217 0.63304549
0.012019341 0.0078608068 0.63107699
0.11057524 0.0096152388 0.63100004
0.016468344 0.014534172 0.63560003
0.022901857 0.017831281 0.6329475
0.10684287 0.015438288 0.63310009
0.11057524 0.010817143 0.63100004
0.025977567 0.022444306 0.63499993
0.034368068 0.024865907 0.63160002
0.044574339 0.028196491 0.63342106
0.054600004 0.0288 0.63000005
0.060000002 0.028800001 0.63000005
0.087202713 0.027896665 0.63216674
0.094562098 0.02423276 0.6312502
0.10112 0.020464763 0.63200003
0.045423619 0.032562286 0.63725019
0.054891065 0.031860135 0.63176203
0.064984538 0.034658331 0.6333999
0.074045323 0.03338892 0.63415146
0.085057944 0.031199051 0.63408339
0.058200002 0.040800005 0.63000005
0.065462746 0.042650286 0.63136679
0.074557707 0.045692705 0.63373798
0.084371999 0.048894119 0.63705885
0.092358097 0.049824767 0.63800001
0.077987634 0.054716919 0.63138473
0.085222565 0.054995578 0.6345939
0.094402328 0.055759545 0.63666654
0.076161072 0.065575741 0.63069814
0.085243903 0.064687036 0.63475007
0.095119841 0.064824939 0.63614058
0.10086477 0.064407617 0.63800001
0.066982985 0.076326579 0.630871
0.074966371 0.075264126 0.63359004
0.085125506 0.073926166 0.63703835
0.094542496 0.074468501 0.63409364
-0.20051429 0.089927621 0.63800001
-0.19407406 0.08797849 0.6337648
-0.18598072 0.086791858 0.63185316
0.067009643 0.082292669 0.63152939
0.075632527 0.084231906 0.63394547
0.084780149 0.085404947 0.63550854
0.093833841 0.085428342 0.63597989
-0.20365402 0.092718929 0.63750011
-0.19863723 0.092358612 0.63272727
-0.18480001 0.090000004 0.63000005
0.038427882 0.098253347 0.63045466
0.04548502 0.095683247 0.63278836
0.055098966 0.096166112 0.63670564
0.063393921 0.095463015 0.63719237
0.078000009 0.091800004 0.63000011
0.085338689 0.092072546 0.63473082
0.094232529 0.094380535 0.63724369
0.02621356 0.10810163 0.63058829
0.034981646 0.10513466 0.63246667
0.044897258 0.10421107 0.63600004
0.053425182 0.10118159 0.63744444
0.0090000005 0.11880001 0.63000005
0.015994908 0.11594614 0.63116288
0.024581505 0.11485897 0.63335603
0.034204494 0.1141835 0.63656598
0.040102862 0.11180191 0.63800001
-0.043230474 0.12692338 0.63046157
-0.035709884 0.1279228 0.63359386
-0.027277621 0.12972477 0.63650006
-0.0035155104 0.12578614 0.63021445
0.0053537767 0.12454078 0.63121688
0.015102893 0.12462065 0.63550901
0.024024561 0.12177686 0.63731593
0.032406352 0.12030858 0.63800001
-0.033191748 0.13067828 0.63183337
-0.024013612 0.13370436 0.63302088
-0.015422286 0.1367442 0.63356006
-0.0069663818 0.13799696 0.6363501
-0.015098477 0.14488535 0.63152415
-0.0057887333 0.14469394 0.63635582
0.0018228572 0.14461333 0.63800001
-0.030047622 0.15925239 0.63100004
-0.024417482 0.15669124 0.6307252
-0.015199126 0.1550322 0.63488531
-0.0073865037 0.15392765 0.63731426
-0.032155413 0.16611087 0.63037491
-0.024768073 0.16523643 0.63467813
-0.016019601 0.16306368 0.63748389
-0.009721905 0.16041143 0.63800001
-0.041716196 0.17857096 0.63025004
-0.034332514 0.17525816 0.63178355
-0.024857236 0.17508672 0.63667196
-0.018836193 0.17398159 0.63800001
-0.25393751 0.18891102 0.63557148
-0.24450761 0.18837872 0.63497287
-0.23869118 0.18932465 0.63657153
-0.05389405 0.18822956 0.6314376
-0.044569146 0.18493408 0.63244909
-0.035420664 0.1843638 0.63522232
-0.02664216 0.18204764 0.63773352
-0.25444454 0.19192182 0.63165522
-0.24605247 0.19094022 0.63107699
-0.23478606 0.19167119 0.63437134
-0.22509357 0.19354725 0.63448727
-0.21472543 0.19618292 0.63294661
-0.20813318 0.19697697 0.6329
-0.07271643 0.19772853 0.63070595
-0.064641617 0.19569521 0.63288248
-0.055540692 0.19474611 0.63593745
-0.044892412 0.19184268 0.63699996
-0.038482543 0.19119745 0.63800001
-0.21240002 0.20040002 0.63000005
-0.20890987 0.20050603 0.63033342
-0.091200009 0.20880002 0.63000005
-0.084257148 0.20614816 0.63078719
-0.075044803 0.20513849 0.63404846
-0.065832078 0.203825 0.63694751
-0.058133572 0.20111644 0.63750005
-0.12408645 0.21932791 0.63107699
-0.11502857 0.21873072 0.634
-0.10488695 0.21740095 0.63110012
-0.094750166 0.21418853 0.63138467
-0.085116126 0.21459723 0.63489795
-0.075844929 0.21217313 0.63712513
-0.069268569 0.21023619 0.63800001
-0.1229462 0.22097477 0.63050008
-0.11455871 0.22231647 0.63309091
-0.10443331 0.22397065 0.63306791
-0.09548822 0.22694913 0.63350004
-0.086719885 0.22885795 0.63706672
-0.092757799 0.23429905 0.63049996
-0.08503142 0.23456831 0.63437653
-0.077120729 0.23604941 0.63719994
-0.10170001 0.2493 0.63000005
-0.094688565 0.24527663 0.63191372
-0.08505863 0.24488704 0.6357379
-0.078084156 0.24242653 0.63781822
-0.11245764 0.25700998 0.63013047
-0.1047931 0.25546947 0.63187051
-0.095049493 0.25506997 0.63570011
-0.086897179 0.25352573 0.6371212
-0.11371586 0.26456553 0.63046926
-0.10498282 0.2648561 0.6341666
-0.096519135 0.26427725 0.63721424
-0.13152002 0.27888003 0.63000005
-0.12463186 0.27676663 0.63106251
-0.11475418 0.27523521 0.63398355
-0.10496653 0.27453387 0.63627774
-0.09796074 0.27303675 0.63755554
-0.13350096 0.28262547 0.63076478
-0.12485246 0.28287947 0.63389748
-0.11559417 0.2830762 0.63664854
-0.10839923 0.2812061 0.63800001
0.076372147 -0.102135 0.64025003
0.063390478 -0.090209529 0.64000005
0.073774613 -0.095871836 0.64049995
0.086308576 -0.090940967 0.64000005
0.0058582867 -0.08128991 0.64080006
0.086444579 -0.088396572 0.64100003
0.0061047622 -0.079361908 0.64100003
-0.17397195 -0.023055317 0.64647996
-0.16525888 -0.023694964 0.64488572
-0.15317924 -0.022189174 0.64336842
-0.14741237 -0.020796668 0.64225
-0.011005715 -0.023845714 0.64200002
-0.0074565308 -0.023586532 0.64092857
-0.17574385 -0.016375847 0.64144003
-0.15115352 -0.01904724 0.64100003
-0.14646152 -0.017450003 0.64100003
-0.0067542871 -0.015634678 0.64289749
-0.0032611114 -0.0082507953 0.64166665
0.0012215874 -0.0018342858 0.64200008
0.0044318666 0.0051648403 0.64297289
0.0088331429 0.011535239 0.64420003
0.01393286 0.015153493 0.64074993
0.027945975 0.028508922 0.64818192
0.033861183 0.028462972 0.64311767
0.037288792 0.031747401 0.64107692
0.045782015 0.036029629 0.64000005
0.055692036 0.035795957 0.64082503
0.06393604 0.037141856 0.64100009
0.075305477 0.03756927 0.64095449
0.085871428 0.038474761 0.64625001
0.090241909 0.039558098 0.64900005
0.076824106 0.041919623 0.64069998
0.085302137 0.044039622 0.64303762
0.094201818 0.046419527 0.64354998
0.10256325 0.048327811 0.64560002
0.098449118 0.05270844 0.6403572
0.10494972 0.054789245 0.64317739
0.11432803 0.056040924 0.64748842
0.10558927 0.064945914 0.64237255
0.11505686 0.064530827 0.64667737
0.12155873 0.063869849 0.64900011
-0.21164192 0.079365715 0.64600003
-0.2080054 0.079201274 0.64300007
0.08673621 0.078114972 0.64007139
0.10576135 0.074962191 0.64733946
0.111448 0.074712619 0.64831251
-0.21250644 0.084345669 0.6461333
-0.20490921 0.084951378 0.64273781
-0.19526167 0.083321802 0.64407408
-0.18857022 0.083321571 0.64590913
0.087085843 0.082205482 0.64056247
0.098895252 0.084679052 0.64900005
0.1040952 0.085282348 0.64758539
0.11002096 0.080970481 0.64900005
-0.20626287 0.091550477 0.64000005
0.067329526 0.097524054 0.64050007
0.074513763 0.096883707 0.64284861
0.084901571 0.097937204 0.64635473
0.094209336 0.095802478 0.64070004
0.10520527 0.093152054 0.64392304
0.11469787 0.094271876 0.6481213
0.04731429 0.10877315 0.64020002
0.05520957 0.10577096 0.64130437
0.065154202 0.10497535 0.64365077
0.073642723 0.10431469 0.64610815
0.086626075 0.10441859 0.64766669
0.092036597 0.10442128 0.64462507
0.037694179 0.11864255 0.64066666
0.044795342 0.11517473 0.64198172
0.054734483 0.11500199 0.64569348
0.063270085 0.11334966 0.64779323
0.071699053 0.11063905 0.64900005
0.086958304 0.11307059 0.64725012
0.091433331 0.11175285 0.64650005
-0.022941167 0.12896742 0.6414445
-0.016189715 0.12936954 0.6444
-0.0092571434 0.1296 0.648
0.017066669 0.12921906 0.64000005
0.025594888 0.12681143 0.64209741
0.03508734 0.12531571 0.6439057
0.044392724 0.12431211 0.64665997
0.053596292 0.12219449 0.648
-0.021726096 0.13108878 0.64080006
-0.01461667 0.1322355 0.64249992
-0.0055949208 0.13487098 0.64261913
0.0048076627 0.13749063 0.64477271
0.01494413 0.13613752 0.6463334
0.025134882 0.1316625 0.64375001
0.034778796 0.13097768 0.64586669
0.041987937 0.13151906 0.64833337
-0.0014222225 0.14628573 0.6400001
0.0050672106 0.14486951 0.64137131
0.015164384 0.14487082 0.64555228
0.023085052 0.14703596 0.6482175
-0.0031734859 0.15616542 0.64091992
0.0049955742 0.15511255 0.643206
0.015162606 0.15437177 0.64665395
0.0226804 0.15284212 0.64821059
-0.014007946 0.16748147 0.64051729
-0.0054613021 0.16504079 0.64244992
0.0043720175 0.16462046 0.6467998
0.011944128 0.16144603 0.64866674
-0.014553155 0.1751004 0.64120412
-0.0053315503 0.17495178 0.64438099
0.0027850051 0.17462717 0.64776587
-0.26085335 0.18711239 0.64700001
-0.25476336 0.18548638 0.64531124
-0.24516237 0.18513179 0.64450002
-0.23513606 0.18679079 0.64469999
-0.22584447 0.18846461 0.64659464
-0.21732953 0.18947811 0.64679998
-0.03145143 0.18846478 0.64000005
-0.024394611 0.18638055 0.6411708
-0.015163391 0.18488815 0.64367783
-0.006085943 0.18456972 0.64701986
0.0019561904 0.18199208 0.64850008
-0.26005337 0.19013335 0.64400005
-0.23297383 0.19058762 0.64037502
-0.22393262 0.19134349 0.64166671
-0.21588422 0.19217139 0.64237499
-0.052012704 0.19850159 0.6400001
-0.045007836 0.1971229 0.64062864
-0.034656625 0.19518602 0.64222223
-0.025407009 0.1947507 0.64570212
-0.016659508 0.19313452 0.64710349
-0.0086438097 0.19058922 0.64833337
-0.063185953 0.2074717 0.64025003
-0.054430205 0.20551494 0.64167851
-0.044888735 0.20497847 0.64458179
-0.035093561 0.20485881 0.64742011
-0.028185144 0.20100461 0.64900011
-0.0809054 0.21913652 0.64033341
-0.074151531 0.21669239 0.64110357
-0.064963408 0.21495925 0.64293218
-0.055223174 0.21485737 0.64592582
-0.04639405 0.21205515 0.6484375
-0.038321909 0.21015242 0.64900005
-0.09437076 0.22371383 0.64161104
-0.08483506 0.22574693 0.64340311
-0.075213023 0.2257262 0.64597046
-0.065446749 0.22327794 0.6473462
-0.0572947 0.22124164 0.64785719
-0.080457143 0.23040001 0.64000005
-0.073625103 0.23310602 0.64206117
-0.065180324 0.23489638 0.64403749
-0.05533883 0.23651418 0.6470589
-0.048009682 0.23805246 0.64884627
-0.081066668 0.24868572 0.64000005
-0.074115276 0.24537405 0.64089799
-0.064926364 0.24475491 0.64374262
-0.054877337 0.24453296 0.64745998
-0.047984563 0.24356712 0.648579
-0.083144896 0.2562854 0.64041936
-0.07514368 0.25510421 0.6434443
-0.065065309 0.25469196 0.64717859
-0.059005238 0.25177714 0.64875007
-0.092363104 0.26670334 0.64022225
-0.084980085 0.26513106 0.64182258
-0.074907161 0.26496536 0.64657807
-0.066637501 0.26184419 0.64862508
-0.093920968 0.27561155 0.64134097
-0.084693044 0.27502465 0.6447742
-0.075107351 0.27442867 0.64843404
-0.11251771 0.28740022 0.64070004
-0.10473732 0.28448761 0.64129794
-0.094841003 0.28469563 0.64510429
-0.085319117 0.28374279 0.64773345
-0.078292072 0.28143939 0.64900011
-0.10310422 0.29081035 0.64771438
-0.095887631 0.29087976 0.6487335
-0.18239489 -0.024800118 0.65700001
-0.1763162 -0.026515674 0.65436363
-0.16428606 -0.027695594 0.65343761
-0.15540934 -0.025333615 0.65529633
-0.14844477 -0.023802539 0.65766668
0.029184762 0.031047622 0.65200001
0.032910477 0.031668574 0.65200001
0.08728572 0.038380954 0.65000004
0.091619052 0.039619051 0.65000004
0.096356079 0.042739831 0.65541178
0.10595951 0.047050577 0.6518001
0.11461396 0.04814209 0.65244448
0.12414122 0.048117083 0.65786684
0.11634896 0.051810164 0.65073341
0.12499832 0.054994259 0.65400004
0.1338077 0.056736525 0.65770972
0.11885715 0.069333337 0.65000004
0.12593377 0.065476261 0.65189576
0.1349708 0.064904541 0.65618968
0.142031 0.065298833 0.65830785
-0.20292822 0.078527749 0.65637499
-0.19552642 0.078183614 0.65382612
-0.18942858 0.079238102 0.65000004
0.11636798 0.07518895 0.65090472
0.12478084 0.074923225 0.65436351
0.135423 0.075164407 0.6561693
0.1423326 0.074077226 0.65529013
-0.20602392 0.081454895 0.6533637
-0.19190477 0.080476195 0.65000004
0.10513315 0.085190699 0.65013778
0.11518712 0.085313626 0.65293539
0.12467004 0.084622636 0.65695852
0.13565667 0.0840749 0.65736377
0.14158668 0.085361786 0.65599996
0.08444953 0.096868567 0.65200001
0.10454731 0.098913014 0.65733337
0.11583748 0.095144004 0.65171993
0.12518278 0.094195686 0.6539076
0.13514967 0.094555572 0.65708339
0.14136846 0.091554709 0.65744448
0.07781072 0.10710643 0.65100002
0.082761735 0.10664944 0.65104365
0.097703695 0.10614596 0.65656257
0.10341225 0.10347634 0.65807527
0.11217335 0.10026667 0.65800005
0.12820725 0.10086019 0.65860003
0.13303468 0.10179678 0.65734988
0.066731647 0.11683753 0.65099996
0.075465843 0.11530213 0.65286672
0.083642744 0.11601967 0.65305412
0.097280957 0.11046096 0.65900004
0.04816857 0.12808715 0.65050006
0.056089375 0.12663443 0.6524474
0.064989202 0.12452279 0.65396231
0.074936934 0.12516738 0.6576277
0.08391317 0.12478343 0.65353453
-0.003531429 0.13320294 0.65123081
0.0044265012 0.13422443 0.6514349
0.015557348 0.13619187 0.65254545
0.024230158 0.13801026 0.65645832
0.030544128 0.13891304 0.65900004
0.047272217 0.13243677 0.65086961
0.054270115 0.13256361 0.65373081
0.064237647 0.13253623 0.65813804
0.076300159 0.13358176 0.65850019
0.082823239 0.13152933 0.65390003
0.019840002 0.14073905 0.65100002
0.026505364 0.14372049 0.65225482
0.035003521 0.14539896 0.65470004
0.044083752 0.14722845 0.65746677
0.050209526 0.14874572 0.65900004
0.018040819 0.15882996 0.65000004
0.026901804 0.15586807 0.65202636
0.035116427 0.15475549 0.6542806
0.04416585 0.15438747 0.65775019
0.050209526 0.15062857 0.65900004
0.0089417994 0.16824339 0.65000004
0.015996113 0.16511475 0.65080392
0.024973195 0.16473 0.65418178
0.033895709 0.16474767 0.65795475
0.041422859 0.16067049 0.65900004
-0.25416332 0.17832968 0.65719247
-0.24777079 0.17882983 0.65808332
0.0083726989 0.17532715 0.65108335
0.01548795 0.17475238 0.65323818
0.025153406 0.17474918 0.65638465
0.03052127 0.17455445 0.65850002
-0.26182455 0.18275957 0.65422231
-0.25539574 0.18150221 0.6523571
-0.24434987 0.18183859 0.65445012
-0.23493221 0.18330866 0.65578395
-0.22494239 0.185737 0.65530944
-0.21872124 0.18714254 0.6534546
-0.0024769525 0.1883063 0.6504001
0.0060456777 0.18534695 0.65188462
0.014991722 0.18485816 0.6557346
0.023452383 0.1838541 0.65778279
0.030125715 0.18138191 0.65900004
-0.022285715 0.19933335 0.65000004
-0.014136146 0.19746312 0.65219057
-0.00531381 0.19500637 0.65337503
0.0043235631 0.19426472 0.65500003
0.013466529 0.19292927 0.6581853
0.020068573 0.19127905 0.65850008
-0.03161905 0.20956001 0.65100002
-0.025114587 0.20543058 0.65239215
-0.01514132 0.2047227 0.65626937
-0.0061438554 0.20216121 0.65785712
-0.051226668 0.21895492 0.65066671
-0.044671088 0.21636602 0.65150005
-0.035117257 0.21532583 0.65388006
-0.025294576 0.2138321 0.65720946
-0.018828571 0.21088001 0.65900004
-0.064950116 0.22743307 0.6520741
-0.055107582 0.22599141 0.65588886
-0.045244552 0.22273736 0.6551612
-0.035498813 0.2220974 0.65783334
-0.062826678 0.23091809 0.6520834
-0.054814454 0.23198672 0.65370733
-0.044862825 0.2353002 0.65363634
-0.035729825 0.23765549 0.65705276
-0.054476198 0.24885717 0.65000004
-0.043750368 0.24527717 0.65153849
-0.034942944 0.24470234 0.65564293
-0.028870476 0.24288858 0.65900004
-0.060666669 0.25814289 0.65000004
-0.054839853 0.25505129 0.65100008
-0.045063902 0.25491378 0.65438586
-0.036734983 0.25462827 0.65772992
-0.064663775 0.2663123 0.65113944
-0.055080168 0.26519528 0.65466654
-0.045660298 0.26429242 0.65812802
-0.037647307 0.26165116 0.65883338
-0.072017416 0.27851704 0.65028572
-0.06510438 0.27496749 0.6527366
-0.055007033 0.27496183 0.65683115
-0.047140542 0.27406138 0.65882623
-0.083486609 0.28839535 0.65046167
-0.074724719 0.28532943 0.65238637
-0.065036036 0.28486991 0.65579307
-0.05663069 0.28246778 0.65827787
-0.091711752 0.29249018 0.65066671
-0.084046602 0.2920846 0.65338469
-0.074795842 0.29232278 0.65699995
-0.067035928 0.29144764 0.65871429
-0.18182011 -0.031480212 0.66700006
-0.17542918 -0.031624459 0.66689479
-0.16611686 -0.031447284 0.66664708
-0.15182191 -0.03049143 0.66700006
-0.18403514 -0.027073862 0.66277784
-0.17535457 -0.02907701 0.66371435
-0.16657715 -0.029023811 0.66250002
-0.15290235 -0.028034117 0.66345465
-0.14885587 -0.026779048 0.66416669
-0.09097524 -0.010179048 0.66800004
-0.087794289 -0.010179048 0.6680001
-0.09097524 -0.0089066671 0.66800004
-0.088430479 -0.0089066671 0.66800004
0.098269671 0.038155377 0.66142863
0.10416381 0.038700957 0.66318184
0.111 0.039325714 0.66600001
0.098205715 0.040289529 0.66100001
0.10483995 0.042823363 0.66241169
0.11369298 0.044000473 0.66478568
0.1251132 0.046827756 0.66450012
0.1354419 0.048098333 0.6645239
0.1423635 0.049076192 0.66633332
0.13627231 0.052811366 0.66242868
0.14435294 0.055398967 0.66502172
0.15014096 0.05852953 0.66800004
0.14723742 0.064454935 0.66350001
0.15247078 0.067058101 0.66705561
-0.21218725 0.07723619 0.66478574
-0.20556705 0.074964553 0.66451281
-0.19785717 0.074445471 0.66473341
0.14820954 0.074782148 0.66468751
0.15321916 0.072871938 0.66705883
-0.2124705 0.080700956 0.66200006
0.12937824 0.087452255 0.66128576
0.13229954 0.087570474 0.66150016
0.1468505 0.085821435 0.66750002
0.10953714 0.099464767 0.66100001
0.1296819 0.09065143 0.66100001
0.13157049 0.09065143 0.66100001
0.10721375 0.10710459 0.66152179
0.11504023 0.10537899 0.66299999
0.12512715 0.10549237 0.66417557
0.13123375 0.10729308 0.6615715
0.096890703 0.11585853 0.66229033
0.10494096 0.1150558 0.66375512
0.11393746 0.11298529 0.6664722
0.12572671 0.11466199 0.66662252
0.13007429 0.11113144 0.66300005
0.075857617 0.12936714 0.66100001
0.095191687 0.12511326 0.66601825
0.10341587 0.12298816 0.66692591
0.12658855 0.12426521 0.66663891
0.028328571 0.13723619 0.66100001
0.034697969 0.1381754 0.66523814
0.04165943 0.13920192 0.66680002
0.059205081 0.13730603 0.66133338
0.064281382 0.13667661 0.66100013
0.073304549 0.13254973 0.66100013
0.09097524 0.13105524 0.66800004
0.1266019 0.13105524 0.66800004
0.036313064 0.14092612 0.6622858
0.044991486 0.14327951 0.66325009
0.054863337 0.14725891 0.66505557
0.064387493 0.14779177 0.66716671
0.047865909 0.15757869 0.66130012
0.055210054 0.15510041 0.6638689
0.065331288 0.15497422 0.66652542
0.071512386 0.15560277 0.6677779
0.03796513 0.16784075 0.66100013
0.045135595 0.1652298 0.66244644
0.05453955 0.1645968 0.66583991
0.065323375 0.16359663 0.66757137
0.072228201 0.1686164 0.6676001
-0.2637814 0.17576218 0.66448718
-0.25507158 0.17471267 0.66364861
-0.24519944 0.17735656 0.66394597
-0.23799349 0.17944871 0.66614288
0.035642833 0.17532396 0.66197789
0.044838693 0.17496303 0.66494828
0.052978683 0.17400213 0.66773087
0.068714209 0.1748555 0.66752183
0.072245903 0.17426233 0.66709518
-0.26376036 0.18101969 0.66150004
-0.24173716 0.18004382 0.66100001
-0.2342573 0.18103674 0.66336006
-0.22512722 0.18210638 0.66371047
0.02731839 0.18744822 0.66115397
0.034790751 0.18474039 0.66283911
0.044676878 0.1844473 0.66686785
0.051213339 0.1816324 0.66800004
0.069292858 0.18117906 0.66750002
0.071253337 0.1806781 0.66800004
0.0088133328 0.19892953 0.66100001
0.015892876 0.19716144 0.66216004
0.024909066 0.19474201 0.66309988
0.034722075 0.19394794 0.6661489
0.041120004 0.19224605 0.66766667
-0.010701905 0.20900191 0.66100001
-0.0042334697 0.20724718 0.66228575
0.004292361 0.20533828 0.66451013
0.014102003 0.20354448 0.66672409
0.022557778 0.20173889 0.66716671
0.047714286 0.20548953 0.66800004
-0.021747187 0.21792972 0.66100007
-0.014383505 0.21515179 0.66281146
-0.0055392487 0.2148096 0.66605258
0.0021795919 0.21253361 0.66728574
-0.05429643 0.22851716 0.66100001
-0.044032555 0.22869179 0.66400003
-0.033879504 0.22698824 0.66300011
-0.024801362 0.22369355 0.66295236
-0.015177471 0.22299856 0.66610342
-0.0073798099 0.22088535 0.66800004
-0.052447386 0.23105213 0.6615001
-0.044349704 0.23210357 0.66350001
-0.034350853 0.23351212 0.66409802
-0.025131604 0.23750624 0.66511357
-0.01779262 0.23893811 0.6672501
-0.024470119 0.24475639 0.66206765
-0.014820685 0.24509209 0.66595316
-0.0089066671 0.24747811 0.66800004
-0.031988986 0.25613874 0.66143489
-0.024582958 0.25470302 0.66446304
-0.015436991 0.25388631 0.6667105
-0.0089066671 0.25065905 0.66800004
-0.042020276 0.26796249 0.66135722
-0.034145739 0.26547554 0.66291106
-0.025312385 0.26479989 0.66696352
-0.019085715 0.26083809 0.66800004
-0.042956412 0.27571645 0.66165709
-0.034855045 0.27491575 0.66491807
-0.027716098 0.27361137 0.66750014
-0.053645086 0.28664681 0.66216671
-0.044960752 0.28484014 0.66365302
-0.035355806 0.2841939 0.66674989
-0.029250164 0.28232828 0.66766679
-0.073069334 0.29605523 0.66140002
-0.064032592 0.29463044 0.66207421
-0.05528716 0.29450175 0.6653043
-0.046490401 0.29293591 0.66720843
-0.19191049 -0.032293335 0.67814285
-0.18532366 -0.034888953 0.67410016
-0.17447242 -0.036178213 0.67397058
-0.16417274 -0.033059884 0.67399997
-0.15690705 -0.031919807 0.67299998
-0.14931428 -0.030628571 0.67000002
-0.19353066 -0.027873611 0.67788243
-0.18787999 -0.029396191 0.671
-0.16192001 -0.029440003 0.67200005
-0.15734592 -0.029422477 0.67160004
-0.14931428 -0.029352382 0.67000002
-0.1050162 -0.015067108 0.6764999
-0.091692388 -0.012269525 0.67799997
-0.08924 -0.012286667 0.67900002
-0.091150478 -0.0070609525 0.67400002
-0.087898418 -0.0079333344 0.67533344
0.12473565 0.043788843 0.67417234
0.13056001 0.045440003 0.67200005
0.14904541 0.053090479 0.67166674
0.15402067 0.055415839 0.6724546
-0.21358939 0.06941171 0.67842859
-0.20525822 0.06914559 0.67774999
0.15607424 0.064080209 0.67016673
-0.21463837 0.072992027 0.67514282
-0.20462981 0.070978373 0.67142856
-0.19896573 0.071013339 0.67175007
0.15259594 0.077300683 0.67000002
0.14844924 0.084954791 0.67094731
0.15188526 0.083880909 0.67141175
0.14803809 0.091885716 0.67000002
0.15081523 0.092022859 0.671
0.11648476 0.11733651 0.670389
0.1213529 0.11694113 0.67063642
0.10658141 0.1267222 0.67091995
0.11518891 0.12525009 0.67308623
0.12220738 0.12541096 0.67206681
0.038923807 0.13782857 0.67000002
0.043739684 0.13845989 0.671
0.056060955 0.13950604 0.67400002
0.089084767 0.13533303 0.67133331
0.095222451 0.13495038 0.67093605
0.10535821 0.13512503 0.67534012
0.11535101 0.13499521 0.67672545
0.12321638 0.13482061 0.67163628
0.047787618 0.14131506 0.67080003
0.055593893 0.14287414 0.67185301
0.065052591 0.14451633 0.67195642
0.074513599 0.14761408 0.67409104
0.082523338 0.14858398 0.67783344
0.10928667 0.14097333 0.67900002
0.11434223 0.14126605 0.6783334
0.12236762 0.14167619 0.67130005
0.076126203 0.15472117 0.67131907
0.084943585 0.15475449 0.67512065
0.092659615 0.1558973 0.67807412
-0.26283637 0.16900618 0.67692322
-0.25789362 0.16928329 0.67842853
0.058352657 0.16885796 0.67014295
0.065089606 0.16763587 0.67004353
0.075292736 0.16479456 0.67201841
0.08483842 0.16511507 0.6774469
0.092468575 0.16158941 0.67828578
-0.27192333 0.17330666 0.67900002
-0.26526353 0.17186832 0.67404348
-0.25472996 0.17227282 0.67510015
-0.24485613 0.1742186 0.67467308
-0.23509596 0.17704928 0.67405671
-0.22602817 0.17635964 0.67536849
0.056882519 0.17616314 0.67053574
0.063574523 0.17530563 0.67073798
0.077501714 0.17305581 0.67700005
0.083382785 0.17291588 0.67848003
-0.22344509 0.18088317 0.67033339
0.049260955 0.18785524 0.67000002
0.055303186 0.18520916 0.67078263
0.064319208 0.1849838 0.67120695
0.072768629 0.1871202 0.67578954
0.038092382 0.19875938 0.67033339
0.046009522 0.19542027 0.67096287
0.055164251 0.19543995 0.67346424
0.064590372 0.1952918 0.67393339
0.072342858 0.19364344 0.67819995
0.0089333337 0.20929524 0.67000002
0.015648669 0.20833361 0.67059994
0.025458954 0.20628382 0.67153668
0.034921829 0.20502441 0.67398
0.04533859 0.20473197 0.67294008
0.055044379 0.20509906 0.67121059
0.064666376 0.2047838 0.67366105
0.074444376 0.20574 0.67836368
0.080186665 0.20693333 0.67900002
-0.002297143 0.21899429 0.67000002
0.0053596282 0.21631785 0.67063415
0.014566577 0.21509989 0.67335302
0.025055531 0.2151525 0.67680424
0.034090769 0.21312737 0.67813051
0.043326668 0.21081333 0.67900002
0.05614949 0.21502119 0.67676002
0.0612581 0.21167049 0.67350006
0.075660005 0.21081333 0.67900002
-0.013368723 0.22753367 0.67010534
-0.0049201953 0.22543292 0.67215383
0.0044590058 0.22505522 0.67488891
0.014356012 0.22320272 0.67734367
0.021663334 0.22148333 0.67900002
0.055107936 0.2247971 0.67809522
-0.024498571 0.23350823 0.67257494
-0.014848017 0.2357561 0.67394817
-0.006632654 0.23492697 0.67742854
0.0019400001 0.23085999 0.67900002
0.056011431 0.23048383 0.67600006
-0.011128436 0.24117117 0.67042863
-0.0047805952 0.24410304 0.67264068
0.0041457592 0.24542084 0.67629224
0.011734445 0.24772194 0.67825001
-0.012405443 0.25807443 0.6705001
-0.0051951804 0.25515741 0.67218375
0.0045925891 0.25503582 0.67603612
0.011445986 0.25309592 0.67842859
-0.020424128 0.26615208 0.67016667
-0.014707727 0.26495016 0.67159617
-0.0048946301 0.26513046 0.67534047
0.0041357339 0.26435688 0.67800015
-0.023440156 0.27612054 0.67062163
-0.014845241 0.27500829 0.67420012
-0.0065087238 0.27361071 0.67808002
0.00043111114 0.2707378 0.67900008
-0.031904764 0.28856084 0.67000002
-0.024695119 0.28518865 0.6723879
-0.015171595 0.28453642 0.67606395
-0.0090533337 0.28259334 0.67900002
-0.043739222 0.29653767 0.67090911
-0.035424139 0.29469338 0.67204654
-0.025639161 0.29384363 0.67617649
-0.017950902 0.29267684 0.67855555
-0.051762857 0.30035236 0.671
-0.044328734 0.3016724 0.67466676
-0.035530671 0.30181497 0.67753345
-0.029100001 0.30070001 0.67900002
-0.19001906 -0.040624764 0.68800002
-0.18380626 -0.041058015 0.68527275
-0.17909905 -0.040864762 0.68466675
-0.16118857 -0.040624764 0.68800002
-0.1598781 -0.040624764 0.68800002
-0.19327381 -0.034700003 0.68099999
-0.18511429 -0.038971428 0.6820001
-0.17094953 -0.039000005 0.6825
-0.16567609 -0.037119374 0.6837222
-0.1591223 -0.037686862 0.68700004
-0.14415239 -0.030796193 0.68800008
-0.19632109 -0.024239458 0.68000001
-0.11311001 -0.02144381 0.68750006
-0.10876952 -0.020967619 0.68800002
-0.11264192 -0.018108098 0.68300003
-0.1037518 -0.01797819 0.68390006
-0.095456287 -0.016213203 0.68551725
-0.085288778 -0.014301585 0.68387508
-0.079299442 -0.011516573 0.68700004
-0.083427429 -0.0084735239 0.68440002
-0.079309851 -0.0087149218 0.68633336
-0.054647509 -0.004851982 0.68629032
-0.047136843 -0.0031021556 0.68742108
-0.044497691 0 0.68714297
0.12433144 0.041381229 0.68200004
0.13520074 0.044799369 0.68727773
0.14524512 0.046261158 0.68782753
-0.22095469 0.067984 0.68640006
-0.21451648 0.066585265 0.68548155
-0.20591277 0.065851957 0.68331993
-0.19946668 0.068647623 0.68000001
-0.22091907 0.072122864 0.68225002
-0.21921715 0.071340963 0.68099999
0.11539048 0.13958985 0.68066669
0.059193335 0.14050286 0.68300003
0.068183064 0.1432834 0.6811111
0.075193167 0.1439824 0.68390632
0.085089505 0.14569679 0.68359995
0.093953118 0.14811954 0.68328571
0.1161254 0.14185525 0.68116677
0.12081143 0.14289525 0.68200004
0.089371428 0.15024762 0.68000001
0.096306093 0.15370175 0.68165517
0.10451026 0.15522619 0.68434483
0.11271334 0.15770409 0.68750006
-0.27385044 0.16743898 0.68527997
-0.26573801 0.16671699 0.68400007
-0.25516492 0.16834104 0.68430787
-0.24617471 0.1688489 0.68483329
-0.23174362 0.1692301 0.68660009
-0.22932002 0.16986668 0.68600005
0.089371428 0.16838096 0.68000001
0.095494203 0.16584393 0.68142861
0.10501884 0.16497144 0.6840483
0.11306674 0.16486712 0.68715394
-0.2744303 0.17260993 0.68163168
-0.25284952 0.17030001 0.6825
-0.24351451 0.1708194 0.68152952
-0.23533349 0.17229827 0.6831795
-0.22837463 0.17257614 0.68123078
0.077710003 0.17797001 0.68137503
0.08639612 0.17687 0.68155175
0.095058136 0.17492658 0.68452954
0.10510851 0.1751298 0.6844756
0.11184392 0.17409131 0.68624997
0.077342197 0.18450497 0.68182772
0.084760249 0.18499583 0.68343633
0.095266953 0.18512237 0.68707556
0.10370153 0.18486309 0.68504357
0.076145969 0.19570825 0.68210524
0.084956199 0.19514111 0.68593776
0.094486848 0.19347517 0.68774348
0.10371397 0.19415054 0.6862632
0.077150002 0.20167106 0.68143749
0.085116707 0.20459352 0.6838811
0.095005043 0.2051028 0.68750954
0.10214006 0.20589894 0.68800002
0.029790476 0.21889523 0.68000001
0.036087714 0.21737917 0.68123811
0.04480407 0.21577318 0.68352294
0.052239217 0.21742144 0.68283337
0.088503502 0.21145019 0.68666673
0.092955351 0.21121885 0.68733341
0.10352764 0.21209556 0.68800014
0.015952479 0.2281516 0.68095011
0.02535761 0.22494574 0.68225592
0.035050351 0.22558247 0.68645668
0.045691703 0.2249624 0.68688691
0.052055001 0.22514372 0.68324995
-0.010361905 0.23573333 0.68000001
-0.0046777143 0.23731251 0.68231434
0.0041890079 0.23649818 0.68487513
0.015036537 0.23287094 0.68386358
0.024775239 0.23216181 0.68636847
0.031840194 0.23165868 0.68790007
0.047281642 0.23204303 0.68550003
0.052246355 0.23203447 0.68149996
0.006990476 0.24116811 0.68256247
0.01528832 0.24526143 0.68371922
0.024707388 0.2464883 0.68558007
0.032580741 0.24790835 0.6872223
0.016073857 0.25569811 0.68177503
0.025034366 0.25444722 0.68400013
0.034541488 0.254684 0.68738008
0.0077714287 0.26876193 0.68000001
0.014965955 0.26473129 0.68296438
0.024792526 0.26464671 0.68633986
0.031366456 0.26373619 0.68772227
-0.0037549876 0.2773127 0.68115795
0.0045923418 0.27548549 0.68246931
0.014689484 0.27453753 0.68591321
0.022257145 0.27100575 0.68733335
0.04914286 0.27323431 0.68800002
-0.010685714 0.28786665 0.68000001
-0.004879503 0.28492004 0.68167382
0.004617495 0.28473693 0.68455577
0.013959698 0.28450868 0.68744004
-0.023329999 0.29812381 0.68049997
-0.013811566 0.29554114 0.68197548
-0.0051822085 0.29485947 0.6847502
0.004160847 0.29415661 0.68731111
0.012316953 0.2918008 0.68790013
-0.03265829 0.30430096 0.68040007
-0.024692757 0.30375987 0.68354553
-0.015562255 0.30403498 0.68612128
-0.0061363103 0.30198181 0.68743747
0 0.30009905 0.68800002
-0.19441038 -0.042858835 0.69588888
-0.18507449 -0.044184547 0.69238883
-0.17546684 -0.042461786 0.69378275
-0.16584216 -0.041953579 0.6910001
-0.15914382 -0.041429527 0.69050002
-0.14757715 -0.041215237 0.69800007
-0.20047048 -0.037837144 0.69700003
-0.19667111 -0.038249951 0.69244444
-0.16591877 -0.038850795 0.69011116
-0.15196669 -0.037551433 0.69583338
-0.14538281 -0.035009351 0.69463664
-0.12110171 -0.026765335 0.69560003
-0.11514565 -0.025036192 0.69316667
-0.10491562 -0.022538798 0.69421738
-0.097959995 -0.021180954 0.69500005
-0.10645715 -0.019714287 0.69000006
-0.097507052 -0.019765716 0.69180006
-0.082112059 -0.016823176 0.69716668
-0.079428576 -0.014565079 0.69500005
-0.054432385 -0.011063492 0.69700003
-0.07046476 -0.0086419042 0.69800001
-0.068470478 -0.0086419042 0.69800001
-0.054269683 -0.0086987317 0.69358343
-0.0434075 -0.0039470484 0.6906001
-0.037498172 -0.0025475456 0.69553852
-0.0414 0.0013142858 0.69000006
-0.03465572 0.0018774604 0.69550008
-0.027229764 0.0032370237 0.69737494
0.10567652 0.036034204 0.69641674
0.11502843 0.036873497 0.69629276
0.12197554 0.036241904 0.6945501
0.11831047 0.041639999 0.69400001
0.12075016 0.042230479 0.69283342
0.13905904 0.04415524 0.69200003
0.14281335 0.04365943 0.69040006
-0.2134743 0.059347305 0.69755554
-0.20976382 0.05974286 0.69700003
-0.22289154 0.062919639 0.69550002
-0.21591514 0.06256289 0.6924783
-0.20891809 0.061290476 0.69200003
0.087158628 0.14227483 0.6904546
0.095771044 0.1464055 0.69448006
0.10379162 0.14794002 0.69572014
0.11168 0.14890668 0.69800007
-0.27312002 0.15948571 0.69775003
-0.26680025 0.1596162 0.69687498
-0.22553976 0.15885542 0.69763637
0.10602343 0.15072076 0.69230002
0.1153752 0.15410638 0.69397974
0.1247934 0.15699419 0.69463408
0.13339049 0.1575046 0.69537514
-0.27443111 0.16260281 0.6934827
-0.2643204 0.16291827 0.692348
-0.25529858 0.16469386 0.6937061
-0.24470963 0.16772404 0.6953637
-0.23516139 0.16750371 0.69606262
-0.22655404 0.16485819 0.69700009
0.11780565 0.16450773 0.69065011
0.12510982 0.16529079 0.69358516
0.13327043 0.16450125 0.69446439
-0.23233335 0.17126286 0.69700003
0.11666769 0.17530389 0.6923573
0.12458833 0.17494671 0.69612515
0.13194536 0.17430873 0.6978696
0.11540741 0.18606871 0.69731128
0.12276495 0.18313096 0.69788229
0.13029332 0.18081523 0.69800001
0.096332997 0.19774574 0.69022745
0.10792762 0.1964424 0.69100004
0.11445694 0.19395702 0.69783783
0.12098667 0.19078666 0.69800001
0.095004097 0.2020245 0.69000012
0.10629842 0.20512027 0.69155574
0.11111531 0.20549071 0.69638467
0.067256138 0.21721052 0.69235289
0.074829303 0.21746922 0.69495249
0.084160149 0.21689303 0.69792312
0.097313635 0.21508871 0.69330448
0.10315415 0.21537681 0.69156253
0.042057149 0.22868574 0.69000006
0.065287828 0.22373559 0.69650012
0.07325387 0.22266416 0.69680965
0.081100948 0.22070096 0.69800001
0.096763819 0.22477403 0.69620574
0.10108571 0.2223886 0.69600004
0.0092000002 0.23854287 0.69000006
0.014725358 0.23835194 0.69087505
0.025469417 0.23734529 0.69161117
0.035717167 0.23594983 0.6924327
0.042777393 0.23416223 0.69147843
0.095533475 0.23261824 0.69728583
0.0092000002 0.24051431 0.69000006
0.016265331 0.24151008 0.69134998
0.025222713 0.24195746 0.69269258
0.035653569 0.24506664 0.69503444
0.044495631 0.24737374 0.69550008
0.052724849 0.24937266 0.69672728
0.039100002 0.2566143 0.69000006
0.044667717 0.2544688 0.69164735
0.054962296 0.25499576 0.69566113
0.036553413 0.26532063 0.69132453
0.045029581 0.26531032 0.69447172
0.053877436 0.26370612 0.69751722
0.019462859 0.27694973 0.69040006
0.025219699 0.27591175 0.69202638
0.035070479 0.27507544 0.69470847
0.044929139 0.27450505 0.69260013
0.050232381 0.27164716 0.69400001
0.01929524 0.285694 0.69066668
0.025123257 0.28489691 0.69406265
0.035366125 0.28515786 0.69737697
0.044134606 0.2850239 0.69623095
0.0073243547 0.29840466 0.69014293
0.015878608 0.2955941 0.6914596
0.025111116 0.29467988 0.69617778
0.036061883 0.29378292 0.69754285
0.042636003 0.29405913 0.69730008
-0.012933334 0.30864286 0.69050002
-0.0044899723 0.30613312 0.69135296
0.0044636303 0.30464888 0.69415635
0.014960112 0.30206075 0.6951766
0.026223671 0.30406502 0.69673818
0.035040379 0.30450195 0.69595361
0.041858915 0.30430532 0.69764292
-0.0033204763 0.31088573 0.69749999
0.028542858 0.31066287 0.69700003
0.03546286 0.31021717 0.69600004
-0.19217142 -0.051245712 0.708
-0.1870997 -0.051149212 0.70666671
-0.20228513 -0.044324994 0.70506257
-0.19542372 -0.047855478 0.70433342
-0.18518627 -0.048105188 0.70366675
-0.17579715 -0.046441745 0.70481825
-0.16992 -0.046525717 0.708
-0.15066668 -0.041333333 0.70000005
-0.14006668 -0.033348575 0.70033336
-0.13420172 -0.034493558 0.70393038
-0.12568794 -0.032433331 0.70783347
-0.11795762 -0.031006191 0.70774996
-0.12254667 -0.029626667 0.70700002
-0.1143833 -0.028140282 0.7074706
-0.10577928 -0.025395714 0.70625001
-0.094906963 -0.022125518 0.70278955
-0.089716196 -0.021424761 0.70300001
-0.080000006 -0.017333334 0.70000005
-0.074957475 -0.01405625 0.70276475
-0.06604287 -0.01227 0.70587516
-0.05766096 -0.012068572 0.70400012
-0.072308578 -0.0093733333 0.70300001
-0.063885398 -0.0094155557 0.70616674
-0.032444626 -0.0021001361 0.70142865
-0.024832284 -0.0024072179 0.70578963
-0.018180002 -0.0013466667 0.70700002
-0.032666668 0 0.70000005
-0.023000803 0.0014768924 0.70173699
-0.016271081 0.0021226064 0.7058422
-0.0074171424 0.0020228571 0.708
0.10777334 0.028496454 0.70327282
0.11504643 0.029223811 0.70537502
0.12118381 0.029459048 0.70300001
0.10542296 0.031905975 0.70105261
0.11467782 0.031990863 0.70130008
0.12142001 0.031355243 0.70050001
-0.22456226 0.057292096 0.70595658
-0.21566436 0.056131296 0.7046209
-0.22381526 0.060128577 0.70150006
0.092666671 0.14400001 0.70000005
0.10688468 0.1459498 0.70063639
0.11456872 0.14811961 0.70057142
0.12210699 0.14911494 0.70316672
-0.28089449 0.15751277 0.70560002
-0.27496374 0.15708722 0.70418185
-0.26673156 0.15821764 0.70426321
-0.25555426 0.15913142 0.708
0.11666667 0.15066668 0.70000005
0.12563796 0.15249453 0.70251852
0.13355313 0.1534043 0.70300019
-0.28136954 0.16106811 0.70175004
-0.278 0.16000001 0.70000005
-0.26196671 0.16012701 0.70350003
-0.25406557 0.16170228 0.70406467
-0.24532925 0.16414706 0.70447236
-0.2356156 0.16546245 0.70150006
-0.22877079 0.16289906 0.70100009
0.11274572 0.1868 0.70050001
0.1264974 0.18583144 0.70053351
0.13118097 0.18457197 0.70071429
0.11722265 0.19769271 0.70022231
0.12551823 0.19508004 0.70157403
0.13104001 0.19321334 0.70200008
0.11616747 0.20462839 0.70251364
0.1241522 0.20446551 0.70417947
0.087784387 0.21852461 0.70040005
0.092439368 0.2187416 0.70166671
0.11693386 0.21233802 0.70636362
0.12294637 0.21223298 0.70692313
0.063864313 0.22846925 0.70023519
0.076329164 0.22663441 0.70185727
0.085055701 0.22503006 0.7028572
0.092571445 0.22468376 0.70257133
0.058960002 0.23383096 0.70350003
0.064876981 0.23538524 0.70447832
0.075173646 0.23500043 0.70620936
0.084420539 0.2338279 0.70710725
0.092272446 0.23525642 0.70416671
0.046312742 0.24452581 0.70238715
0.054645997 0.24662091 0.70351219
0.062447354 0.24775212 0.70392871
0.072822861 0.24004571 0.70800006
0.093866676 0.2400305 0.70400012
0.058666673 0.25066668 0.70000005
0.065494299 0.25436407 0.70143878
0.074738167 0.2548812 0.70499992
0.081804089 0.25647607 0.70735723
0.056020476 0.26776263 0.70024997
0.064874113 0.26478592 0.70235294
0.075301602 0.26487771 0.7056365
0.08172857 0.26237312 0.70775008
0.055724423 0.27534807 0.70375693
0.064962544 0.27477857 0.70620841
0.072495975 0.27401233 0.70784622
0.082907379 0.27838141 0.70775002
0.049305912 0.28805679 0.70340008
0.05513645 0.28528017 0.70599997
0.06220464 0.28436831 0.70726079
0.079565711 0.28522286 0.70800006
0.08309453 0.28413883 0.70718765
0.029333336 0.29800001 0.70000005
0.033869971 0.29718396 0.70006669
0.047345206 0.29573017 0.70281833
0.054697249 0.29388475 0.70643258
0.061747428 0.29296207 0.70780009
0.0080044447 0.30948064 0.70033336
0.015075333 0.30764312 0.70039999
0.021627622 0.30736423 0.70028573
0.033523813 0.30019051 0.70000011
0.046947356 0.30471587 0.70269072
0.054587271 0.30620438 0.70605892
0.062857583 0.30795932 0.70792317
0.0052512935 0.31193727 0.70114291
0.014982297 0.31265357 0.7037648
0.022881335 0.31262383 0.7026
0.048364453 0.31169018 0.70533341
0.055783626 0.31150326 0.70400006
0.063129529 0.31137305 0.70766675
-0.2030618 -0.052321903 0.71655554
-0.19496001 -0.053467717 0.71161115
-0.18519746 -0.052139472 0.71405554
-0.1774653 -0.050568711 0.71200007
-0.21090667 -0.047248572 0.71900004
-0.20699811 -0.046136193 0.71416676
-0.17334859 -0.048754286 0.71100008
-0.1258001 -0.036065646 0.71112508
-0.11417248 -0.033101812 0.71322733
-0.10494991 -0.032152269 0.71558821
-0.099103495 -0.030458413 0.71600002
-0.11134604 -0.029301589 0.71000004
-0.104431 -0.028073678 0.7113201
-0.098277792 -0.027113652 0.7116667
-0.073601797 -0.022331847 0.71777779
-0.068740949 -0.02139619 0.71700001
-0.073773503 -0.018302385 0.71608341
-0.064828649 -0.016484473 0.71188474
-0.055706818 -0.013873555 0.71215391
-0.045459248 -0.012210929 0.71636844
-0.036223494 -0.010935875 0.71766675
-0.050249528 -0.0088276193 0.71300006
-0.044692039 -0.0080366237 0.71395457
-0.034642447 -0.0071504209 0.71379989
-0.026732216 -0.0060081789 0.71429414
-0.015009525 -0.0023983887 0.71146154
-0.008125715 -0.0013542859 0.71100008
-0.011787211 0.0011591837 0.71014291
-0.0084642861 0.00033857144 0.71100003
-0.2414 0.058152389 0.71000004
-0.23488602 0.05640889 0.7134614
-0.2247642 0.052625418 0.71351737
-0.21878159 0.051913336 0.71416676
-0.30222744 0.13658234 0.71753329
-0.30198002 0.14106096 0.71900004
-0.28333926 0.15421663 0.71552628
-0.27465132 0.15321177 0.71459454
-0.26479799 0.15591589 0.71409082
-0.25500679 0.15730099 0.71369243
-0.24636798 0.15857178 0.71634775
-0.23831713 0.1591057 0.71700001
-0.2501905 0.16093335 0.71000004
-0.24391729 0.16154568 0.71367997
-0.23855552 0.16356054 0.71345454
0.11560868 0.21753493 0.71033335
0.12161487 0.21749829 0.71100003
0.10771395 0.2262305 0.7137059
0.11435279 0.22473602 0.71354049
0.12127414 0.22324516 0.71600002
0.086103961 0.23850183 0.71028584
0.10582227 0.23541626 0.71636826
0.11278636 0.23415901 0.71755987
0.058298629 0.24539323 0.71177781
0.065137602 0.24603102 0.71165794
0.075012445 0.24572483 0.71214879
0.084854119 0.24638224 0.71570271
0.090904765 0.24651618 0.71660006
0.10391238 0.24063392 0.71780008
0.066990957 0.25036669 0.7105
0.076009348 0.25065544 0.71027279
0.086222053 0.25451878 0.71246672
0.094900295 0.25495613 0.71593428
0.10300114 0.25698528 0.71765006
0.085808024 0.26539657 0.71078372
0.095335297 0.26466644 0.71475542
0.10480201 0.26414472 0.71764266
0.11093143 0.26157907 0.71900004
0.076461524 0.27585104 0.70999968
0.084929809 0.27455109 0.71109992
0.094503269 0.27474567 0.71687901
0.10208153 0.2731303 0.71839994
0.066921405 0.28581801 0.71003693
0.074452378 0.28531829 0.71069229
0.088192388 0.28476891 0.71416676
0.092169523 0.28288573 0.71775001
0.057981905 0.29870576 0.71066666
0.065934822 0.29513952 0.71096873
0.075293012 0.29519111 0.71126938
0.084260568 0.29445869 0.71391672
0.057554625 0.30241719 0.71047068
0.065588012 0.30418509 0.71208346
0.074471615 0.30498615 0.71236545
0.083008088 0.3055675 0.71553332
0.09069334 0.30822095 0.71600002
0.068052381 0.31392223 0.71216673
0.074848823 0.31454578 0.71351242
0.084145762 0.31348056 0.71633321
0.091204755 0.3121419 0.71600002
0.069845721 0.32046857 0.71900004
0.071215235 0.32046857 0.71900004
-0.18673778 -0.061244451 0.7280001
-0.21273276 -0.053530116 0.72630775
-0.20567279 -0.056476749 0.72422588
-0.19511311 -0.057886433 0.72681242
-0.18568826 -0.056527864 0.72525012
-0.17125335 -0.052000001 0.72800004
-0.16750935 -0.051584005 0.7280001
-0.21294963 -0.046171773 0.72254556
-0.20982857 -0.049371433 0.72000003
-0.17180708 -0.047648713 0.7265715
-0.16776398 -0.048029598 0.72515386
-0.1341982 -0.042669367 0.72631592
-0.12537688 -0.041497555 0.72621435
-0.11925334 -0.040213335 0.72800004
-0.12353941 -0.038078334 0.72368753
-0.11709841 -0.036882121 0.72611117
-0.094524249 -0.031224184 0.7273078
-0.087342314 -0.030956466 0.72457153
-0.094110116 -0.026444517 0.72496307
-0.085355826 -0.024461329 0.72126085
-0.077466674 -0.024994107 0.72133344
-0.065509714 -0.021194285 0.72260004
-0.082971431 -0.019199999 0.72000003
-0.07954286 -0.019199999 0.72000003
-0.064167619 -0.01932 0.72450006
-0.054883242 -0.015938383 0.72760004
-0.045358617 -0.016336193 0.725591
-0.03535971 -0.012531281 0.72469234
-0.027020477 -0.011085715 0.72750002
-0.02346871 -0.0075257146 0.72785723
-0.016209671 -0.0054388284 0.72784626
-0.23146668 0.048510477 0.72766674
-0.22379531 0.046470933 0.72580963
-0.23359939 0.051142227 0.72566676
-0.30034286 0.13645715 0.72000003
-0.29718032 0.13666503 0.72057164
-0.30109945 0.14572076 0.72580004
-0.29644766 0.14562142 0.72635013
-0.28444645 0.1476862 0.72492003
-0.27592432 0.14808525 0.7249698
-0.26901335 0.14976001 0.72800004
-0.29305968 0.15273622 0.72487509
-0.28675887 0.15156794 0.72138482
-0.27395025 0.15114453 0.72137511
-0.26520559 0.15198095 0.72345841
-0.25524378 0.15437168 0.72363639
-0.24634248 0.15578887 0.72107154
0.084278099 0.24754287 0.72028571
0.094378471 0.24857232 0.72130775
0.10526877 0.24467376 0.72245008
0.11229549 0.24302121 0.72337508
0.097917467 0.25121114 0.72399998
0.10586751 0.2545746 0.72350001
0.11391842 0.25675857 0.72310531
0.10880002 0.26788574 0.72000003
0.11519083 0.26492792 0.72173679
0.120767 0.26597846 0.72600001
0.098742865 0.27977145 0.72000003
0.10547755 0.27577937 0.72052932
0.11437071 0.2750361 0.72551227
0.12087112 0.27317336 0.7280001
0.095907196 0.28628919 0.72126925
0.10487521 0.28514284 0.72371793
0.11311442 0.2840336 0.72477412
0.088319995 0.29609144 0.72000009
0.095053874 0.29461777 0.72256243
0.10513784 0.29484504 0.72624499
0.11182478 0.29555815 0.72800004
0.087900423 0.30463901 0.72104776
0.094674133 0.30431798 0.72500008
0.10487735 0.30215514 0.72766668
0.11093334 0.30090669 0.72800004
0.089142859 0.31131428 0.72000003
0.094293334 0.31061333 0.72800004
0.057315558 0.32401779 0.72800004
0.064869791 0.3237327 0.72745466
-0.21436383 -0.061982609 0.73620009
-0.20476647 -0.063337728 0.73391294
-0.19541593 -0.063977003 0.73333329
-0.18594812 -0.063261271 0.73124999
-0.1789562 -0.060118094 0.73400003
-0.221636 -0.055920869 0.73900002
-0.21656238 -0.057015542 0.73423088
-0.20996191 -0.059790477 0.73000002
-0.1954281 -0.059810955 0.73025
-0.18195492 -0.057348039 0.73138887
-0.17519197 -0.05502541 0.73262864
-0.16462357 -0.054188952 0.73422861
-0.15518658 -0.052216154 0.73574078
-0.14920762 -0.050674286 0.73900002
-0.17380953 -0.048666667 0.73000002
-0.16243741 -0.047642253 0.7317273
-0.15535276 -0.047037322 0.73319989
-0.1466022 -0.04771018 0.73784214
-0.12097143 -0.041714288 0.73000002
-0.11757476 -0.04069905 0.73049998
-0.10557143 -0.040820953 0.73900002
-0.11484534 -0.039125334 0.73359996
-0.10446084 -0.037040003 0.73629636
-0.096047729 -0.035258044 0.73410529
-0.087436825 -0.034370478 0.73650002
-0.063041136 -0.024267962 0.7354399
-0.056207146 -0.022906667 0.73616672
-0.061918095 -0.019480001 0.73049998
-0.055183552 -0.019111693 0.73090911
-0.035811204 -0.016176695 0.7364707
-0.025261311 -0.012892261 0.73156244
-0.017426668 -0.011154286 0.73199999
-0.022247618 -0.0097333333 0.73000002
-0.015803128 -0.0085485717 0.73057145
-0.24160048 0.046985239 0.73637503
-0.23504885 0.045011848 0.73424995
-0.22859049 0.043457992 0.7307778
-0.24047238 0.051030479 0.73400003
-0.23721573 0.050508097 0.73150003
-0.29352337 0.14478357 0.7347728
-0.28531262 0.14342187 0.73327583
-0.27471033 0.14555499 0.73415172
-0.26622713 0.148041 0.73607415
-0.25445062 0.14827642 0.73831254
-0.26370275 0.15104535 0.73200005
-0.25475588 0.15192173 0.73370957
-0.24943936 0.15269177 0.7343334
0.10011429 0.24889523 0.73000002
0.11417525 0.2478438 0.73100007
0.098723814 0.25028571 0.73000002
0.1057209 0.25162625 0.73093331
0.11333675 0.25211832 0.73363167
0.11911746 0.27809525 0.73000002
0.12097143 0.2753143 0.73000002
0.11888571 0.28087619 0.73000002
0.11332381 0.29408574 0.73000002
0.09802857 0.30868572 0.73000002
0.1050527 0.3070426 0.73049992
0.097330101 0.31495222 0.73260015
0.10241234 0.31348252 0.73176187
0.059790477 0.32537144 0.73000002
0.098565713 0.32016385 0.73400003
0.10066286 0.32016385 0.73400003
-0.22174335 -0.063205242 0.74150008
