# .PCD v0.7 - Point Cloud Data file format
VERSION 0.7
FIELDS x y z
SIZE 4 4 4
TYPE F F F
COUNT 1 1 1
WIDTH 391
HEIGHT 1
VIEWPOINT 0 0 0 1 0 0 0
POINTS 391
DATA ascii
-0.1501438 0.0039209523 0.58825004
-0.14791583 0.0025401907 0.58860022
0.044941906 -0.040954288 0.59724998
0.055208374 -0.0418781 0.59825003
0.061745852 -0.041434284 0.59714293
-0.04136667 -0.0306 0.59500003
-0.035267621 -0.031585399 0.5948751
-0.029466668 -0.0306 0.59500003
0.037889358 -0.034483124 0.59677792
0.045119733 -0.035079386 0.59529912
0.054983433 -0.036133014 0.59689069
0.061241496 -0.037379727 0.59857148
-0.041705288 -0.025127362 0.59468192
-0.035007171 -0.024844944 0.59287632
-0.028239636 -0.025153266 0.59396166
0.036844365 -0.027849918 0.59679163
0.042549338 -0.028743237 0.5941
-0.15192324 -0.011047239 0.59790009
-0.14548582 -0.011216056 0.597381
-0.13782325 -0.010251429 0.59800005
-0.041074287 -0.018255239 0.5990001
-0.03539269 -0.016938163 0.59669769
-0.02921905 -0.018024128 0.59766674
-0.16142493 -0.0046571423 0.59661919
-0.15468985 -0.005156646 0.59635228
-0.14522585 -0.0050167982 0.59733331
-0.13586503 -0.0049726143 0.59604925
-0.051334471 -0.0022817145 0.59890002
-0.044815857 -0.0040967143 0.59859174
-0.035629071 -0.0048185857 0.59812105
-0.026107391 -0.0030509243 0.59826475
-0.019396191 -0.0011409525 0.59900004
-0.16144077 0.00090742856 0.5952
-0.15485108 0.0023705759 0.59157884
-0.14340417 0.0020439939 0.59490317
-0.13575822 0.0033494558 0.59617871
-0.072294891 0.0080903899 0.59900004
-0.064116433 0.0068734759 0.59895033
-0.054602355 0.0047348617 0.59817106
-0.044942882 0.0046025827 0.59639746
-0.035193574 0.0045384597 0.59604973
-0.02500562 0.0045442437 0.59674096
-0.015092405 0.0049367556 0.59777015
-0.0058753113 0.0065762638 0.59856433
0.0017114286 0.0091276197 0.59900004
-0.07310199 0.01528758 0.59843487
-0.064792298 0.014772842 0.59674096
-0.054973803 0.014731429 0.59506965
-0.04528698 0.014713764 0.5943706
-0.035051759 0.014696113 0.59364176
-0.024885319 0.014700625 0.59386456
-0.014737194 0.014734369 0.59521025
-0.0051106089 0.014768892 0.59655571
0.0024988446 0.015276556 0.59840429
-0.073518544 0.025167825 0.59761852
-0.064756148 0.024904734 0.59536737
-0.054928813 0.024896627 0.59306753
-0.045080803 0.024791677 0.59169102
-0.034940738 0.024795821 0.59176505
-0.024829797 0.024829514 0.59255511
-0.014689241 0.024861312 0.59328377
-0.0051041548 0.024964828 0.59575033
0.0023299048 0.024699135 0.59784448
-0.072601236 0.034913506 0.59817964
-0.064688668 0.035182249 0.59579033
-0.054796267 0.035023306 0.5931111
-0.045047853 0.03491208 0.59123421
-0.034906201 0.03490926 0.59119719
-0.024815591 0.03496857 0.59219712
-0.014695145 0.035050511 0.59358019
-0.0051080151 0.03521857 0.596403
0.0016293881 0.033227481 0.59857148
-0.071309522 0.041074287 0.59900004
-0.064103171 0.044326998 0.59775466
-0.054886036 0.044941343 0.59521216
-0.045226295 0.045231827 0.59358013
-0.035094429 0.045160953 0.59341264
-0.024911875 0.044736236 0.59452784
-0.014752064 0.044837598 0.59587508
-0.0064879055 0.04409286 0.59775007
-0.060850799 0.050582226 0.5990001
-0.054054923 0.052289393 0.59845167
-0.044662673 0.054264169 0.59762764
-0.03552679 0.054601062 0.59715635
-0.025602527 0.052569903 0.59797841
-0.015956286 0.051064093 0.59840006
0.029912382 -0.04026667 0.60400003
0.034373462 -0.041023374 0.60160011
0.048761904 -0.041904762 0.60000002
0.050369523 -0.042356189 0.60100001
0.06783402 -0.040471025 0.60214293
0.071766675 -0.040954288 0.60283339
0.026227795 -0.033333451 0.60481638
0.033334047 -0.035565477 0.60037506
0.059527621 -0.030908573 0.60100001
0.065657035 -0.034643736 0.60106879
0.073190905 -0.033722147 0.60471815
-0.061480008 -0.02146 0.60900003
-0.054852899 -0.021920523 0.60859102
-0.046701193 -0.022628807 0.60787505
-0.024282722 -0.02081633 0.60714287
-0.016233716 -0.021105142 0.60880005
-0.0092799999 -0.020880001 0.60900003
0.026051598 -0.02527724 0.60487896
0.032499295 -0.024954397 0.60065627
0.074819997 -0.029000001 0.60900003
-0.073996522 -0.011694741 0.60865223
-0.064046405 -0.013975024 0.60737735
-0.055008318 -0.014865043 0.6056667
-0.045457799 -0.01476841 0.60281432
-0.035129726 -0.012359276 0.60018939
-0.024934327 -0.014683684 0.60316008
-0.014975595 -0.014985655 0.60482711
-0.0056622424 -0.014468972 0.60661304
0.0037762723 -0.012318534 0.6084286
0.01131 -0.01073 0.60900003
0.026783006 -0.019073261 0.6054616
0.031359367 -0.019121272 0.60233343
-0.13122825 -0.0053426456 0.60083336
-0.12719761 -0.0038864424 0.60338241
-0.090480007 -0.00116 0.60900003
-0.08371494 -0.0035491672 0.60803127
-0.07491225 -0.0051555829 0.60557967
-0.064962551 -0.0051101544 0.60287708
-0.055577062 -0.0056248554 0.60179043
-0.045866668 -0.0085333344 0.60000002
-0.032000005 -0.0085714292 0.60000002
-0.024226012 -0.0070130825 0.60039479
-0.014811479 -0.0052079945 0.60080296
-0.005163095 -0.005169645 0.60276586
0.0046150796 -0.0051932293 0.60511136
0.01385773 -0.0045910999 0.60815382
-0.13234706 0.0063518095 0.60210007
-0.12746038 0.0040999395 0.60485113
-0.091032825 0.0053859949 0.60858828
-0.084763259 0.0046082274 0.60540295
-0.075490929 0.003940234 0.60152465
-0.066084146 0.0023143319 0.60043907
-0.057714283 0 0.60000002
-0.011755102 0.00048979593 0.60000002
-0.0042614723 0.002182222 0.60033345
0.0046590492 0.0044645458 0.60149395
0.014961977 0.0046741902 0.60621262
0.020880001 0.0063800002 0.60900003
-0.13311382 0.011329881 0.60606247
-0.12922402 0.011136 0.60900003
-0.09145759 0.014878023 0.60807699
-0.084472872 0.014938384 0.60333335
-0.077646613 0.014025055 0.60015398
0.0074337246 0.01422661 0.600353
0.014979165 0.014967502 0.60450625
0.02136369 0.015567739 0.60831261
-0.090460323 0.024449101 0.60799998
-0.08455345 0.02513982 0.60349298
-0.078443021 0.02508481 0.60005271
0.0073724878 0.025611058 0.60052782
0.014665076 0.024829181 0.6047222
0.021243811 0.022209525 0.60833335
-0.090480007 0.03074 0.60900003
-0.084147014 0.034697969 0.60496372
-0.077452935 0.035214696 0.60050011
0.0057996642 0.0355842 0.60147065
0.013248732 0.034491032 0.60568768
-0.082574859 0.043535851 0.60784
-0.075336948 0.045110792 0.60304499
-0.068155661 0.0475615 0.60064286
-0.002860476 0.046692066 0.60091674
0.0044964436 0.044791266 0.60425335
0.01137762 0.042328101 0.60741663
-0.072825864 0.052923445 0.60650009
-0.064843498 0.054529272 0.60454559
-0.055576418 0.056904323 0.60129553
-0.046645988 0.058654562 0.60042852
-0.033027519 0.05894265 0.60022223
-0.0244628 0.057727896 0.60097146
-0.014684953 0.055916473 0.60240012
-0.0058674524 0.054063417 0.60456878
0.0028562543 0.051660832 0.60720003
-0.06104381 0.061043497 0.6085
-0.05429944 0.062866472 0.60651737
-0.044932816 0.064451665 0.60563803
-0.034954615 0.064320907 0.60553443
-0.025612479 0.062739111 0.60644829
-0.015921906 0.061026521 0.60715389
-0.0077885725 0.060982861 0.60900003
-0.042903811 -0.040428381 0.61879998
-0.037139997 -0.040087622 0.61900002
-0.071275242 -0.030630477 0.61849999
-0.064317264 -0.032545593 0.61778122
-0.054816779 -0.033442207 0.61634624
-0.045270514 -0.035020486 0.61635077
-0.034674753 -0.036617503 0.61794591
-0.024980366 -0.034764174 0.61547709
-0.015177603 -0.033987351 0.61619347
-0.0058285291 -0.033372506 0.61763626
0.0015712172 -0.031402331 0.61822224
0.079009525 -0.030209525 0.61000001
-0.083748169 -0.023317402 0.61766672
-0.074698329 -0.02508834 0.61562711
-0.065127105 -0.02547974 0.61317247
-0.055199057 -0.026714245 0.6115455
-0.047649425 -0.027287195 0.61100012
-0.023799445 -0.025418956 0.61058551
-0.014939109 -0.025643289 0.6109677
-0.0051838257 -0.025158793 0.61260325
0.0045399042 -0.025035331 0.61547828
0.015322769 -0.024116181 0.61563635
0.021430688 -0.022979895 0.61000007
0.078156576 -0.028377905 0.61060005
-0.092078179 -0.013588408 0.61665231
-0.08467973 -0.014931646 0.61352861
-0.07548961 -0.016736016 0.611449
-0.067311995 -0.017829182 0.61096007
-0.0023238098 -0.018590478 0.61000007
0.005311057 -0.017218508 0.6105653
0.015364873 -0.015397186 0.61245435
0.024401801 -0.014549645 0.61365449
-0.12255367 -0.0020369843 0.61133337
-0.1189016 -0.0015593651 0.61400002
-0.094494134 -0.0050273812 0.61493766
-0.086565048 -0.0070175361 0.61097068
0.018267144 -0.0068655238 0.61079997
0.024671879 -0.0051984969 0.61456144
-0.12287696 0.0049959631 0.61254007
-0.11858728 0.004878609 0.6161924
-0.10141348 0.0058906963 0.6185385
-0.096052185 0.0046498976 0.61331379
0.019752381 0 0.61000001
0.025245067 0.004621306 0.6133287
0.030949999 0.0085480958 0.61900002
-0.13114287 0.013988573 0.61200005
-0.12514006 0.014098889 0.61566663
-0.11924534 0.011525716 0.61740011
-0.10150287 0.014719047 0.6182
-0.096899904 0.015289276 0.61336958
0.026086545 0.015014092 0.61323643
0.031160545 0.012127348 0.61900008
-0.10050413 0.023685081 0.61833334
-0.095168717 0.02517621 0.61261714
0.01936508 0.028660318 0.61000001
0.025550149 0.025441313 0.61429316
0.030622225 0.027089525 0.61833334
-0.094579414 0.034585681 0.61396289
-0.0889882 0.037456762 0.61070007
0.018346032 0.0356449 0.61213344
0.024111055 0.03477969 0.61594331
-0.092662476 0.044948015 0.61729038
-0.086788476 0.045662798 0.61279416
0.0092952382 0.048800003 0.61000001
0.015202264 0.045125715 0.61464584
0.022671191 0.042399757 0.61831254
-0.091032386 0.051009528 0.61800003
-0.084563494 0.053031605 0.61681092
-0.075900532 0.055951465 0.61196291
-0.068268575 0.058800817 0.61042863
-0.0025068135 0.057855975 0.61123085
0.0044441414 0.055958882 0.61313045
0.012003429 0.050836574 0.61780006
-0.071425535 0.06263905 0.61470002
-0.065014489 0.06473437 0.61343402
-0.055842113 0.067385651 0.61257148
-0.045698669 0.069306672 0.61050004
-0.032654859 0.069028579 0.61010009
-0.024596976 0.067291558 0.61200005
-0.014803603 0.065756008 0.61340004
-0.0053193131 0.064206615 0.61655551
0.0027211909 0.061792616 0.6171875
-0.051710058 0.071250163 0.61544448
-0.044033512 0.072853759 0.6150313
-0.035902724 0.072596587 0.61575013
-0.025010187 0.07152424 0.61513054
-0.017876191 0.070986249 0.61655563
-0.051491432 -0.050293338 0.62866664
-0.044600226 -0.050929859 0.62782347
-0.0359479 -0.051075514 0.62788248
-0.025672978 -0.050824173 0.62874997
-0.015917551 -0.05066232 0.62900001
-0.081139043 -0.041018572 0.62874997
-0.07378681 -0.042246774 0.62703705
-0.064732194 -0.043480121 0.62587243
-0.055077299 -0.044416212 0.62457383
-0.045346297 -0.045082506 0.62327892
-0.03483152 -0.044762891 0.62269992
-0.024956297 -0.044579264 0.62397218
-0.014883122 -0.044663731 0.6251561
-0.0057825795 -0.043594092 0.62552094
0.0043822234 -0.042274803 0.62703037
0.012969683 -0.041700955 0.6285001
-0.091447622 -0.032078858 0.62840003
-0.084568091 -0.034582321 0.62596232
-0.075184405 -0.035169728 0.62260306
-0.065592714 -0.036955815 0.62125719
-0.055231623 -0.038449656 0.62046671
-0.049009524 -0.038971432 0.62
-0.034247618 -0.038971432 0.62
-0.014769286 -0.038987141 0.62024999
-0.0041380953 -0.037855428 0.62105006
0.0051970077 -0.035459872 0.62244457
0.014627347 -0.035050206 0.62638992
0.020346032 -0.032314923 0.62833333
-0.10064001 -0.020367619 0.62900001
-0.09339238 -0.02398408 0.62466669
-0.086169638 -0.026903363 0.62120593
0.0082666669 -0.02952381 0.62
0.0148375 -0.029068096 0.62287503
0.020302858 -0.029857146 0.62700003
-0.10381734 -0.014442706 0.62760532
-0.096799999 -0.015408318 0.62213165
0.029587304 -0.013609524 0.62133336
0.032686204 -0.013858836 0.6235556
-0.10403413 -0.0053137178 0.62438291
-0.098908313 -0.0075959181 0.62028575
0.029591838 -0.0059197289 0.62142867
0.032655414 -0.0053761317 0.6226874
-0.11445363 0.0058281133 0.62541997
-0.10607127 0.0044444576 0.62426019
0.034293439 0.004764277 0.62241489
-0.1216355 0.017854372 0.62109089
-0.11491229 0.014918932 0.62348539
-0.10626617 0.014823975 0.62256527
0.033344764 0.012034922 0.62150002
-0.1222794 0.022427363 0.6254999
-0.11498249 0.023031743 0.62751108
-0.10547744 0.024269098 0.625
0.030704763 0.024209524 0.62
-0.096247621 0.042514283 0.62
0.018314604 0.048445717 0.62033337
0.022520501 0.046658244 0.6222105
-0.083355948 0.057347145 0.62075001
-0.078364283 0.058847621 0.62100005
0.0090634925 0.053988572 0.62066674
0.01406406 0.052837986 0.62078959
-0.080563813 0.06042286 0.62200004
-0.076272972 0.062080607 0.62081254
-0.014171429 0.069676191 0.62
-0.0077605443 0.068832658 0.62
-0.0643619 0.070857145 0.62
-0.051607143 -0.061321903 0.63750005
-0.04504095 -0.061357036 0.63716674
-0.037652068 -0.060730159 0.6376667
-0.01456 -0.060666665 0.63700002
-0.081117138 -0.051343814 0.63800001
-0.07393267 -0.052615494 0.63627583
-0.064483039 -0.053400084 0.63471437
-0.054631401 -0.05474646 0.63235712
-0.045336094 -0.056177258 0.63344675
-0.034788322 -0.05616767 0.63392466
-0.024780022 -0.055598143 0.6335333
-0.015021023 -0.055201858 0.63374066
-0.0059153987 -0.053919252 0.63460422
0.0025899685 -0.051919371 0.63686675
-0.091520637 -0.041930161 0.63500005
-0.084838733 -0.045111507 0.6351999
-0.075952925 -0.047062013 0.63347232
-0.066152044 -0.048482917 0.63076478
-0.058200005 -0.049200002 0.63000005
-0.0041346429 -0.048454881 0.63200009
0.0047259871 -0.047240172 0.63354301
0.014580952 -0.043900281 0.63494122
-0.10095239 -0.030689523 0.63600004
-0.094914287 -0.035102349 0.63408351
-0.087722383 -0.038754053 0.63087505
0.018503239 -0.037248004 0.63080007
0.021721909 -0.036710866 0.63120008
-0.10255168 -0.024325032 0.63459998
-0.097599328 -0.026297623 0.63180006
-0.105 -0.0186 0.63000005
-0.12168477 -0.0024290476 0.63725001
-0.11505136 -0.002763334 0.63435727
-0.10891524 -0.0042050797 0.63066673
-0.12095239 0 0.63500005
-0.11393972 0.00091798318 0.63082361
-0.12120001 0.027600003 0.63000005
-0.11522659 0.027724059 0.63043487
-0.10880001 0.028400002 0.63000005
-0.11330391 0.03242822 0.63307416
-0.10679099 0.033052273 0.63223541
-0.062662192 -0.061942194 0.64505881
-0.055915933 -0.062191498 0.64273334
-0.045772385 -0.064082034 0.64081252
-0.034355108 -0.062434301 0.64090478
-0.025415063 -0.062299483 0.64245456
-0.018302435 -0.062418204 0.64533335
-0.064658485 -0.058269031 0.64123523
-0.058788572 -0.058788572 0.64300001
-0.023182478 -0.059789337 0.64060009
-0.019565715 -0.059919998 0.64200002
0.0089536514 -0.050466031 0.64100003
0.011599048 -0.05005905 0.64100003
0.009142858 -0.048761908 0.64000005
0.013109763 -0.047714293 0.64025003
