# .PCD v0.7 - Point Cloud Data file format
VERSION 0.7
FIELDS x y z
SIZE 4 4 4
TYPE F F F
COUNT 1 1 1
WIDTH 1408
HEIGHT 1
VIEWPOINT 0 0 0 1 0 0 0
POINTS 1408
DATA ascii
0.19569239 0.079325475 0.71037501
0.20606248 0.07526055 0.71189296
0.21385804 0.075058252 0.71642846
-0.11303702 0.083899871 0.71538091
-0.10660692 0.086283728 0.71131831
0.076907218 0.089081906 0.71014291
0.085466787 0.088252448 0.71023536
0.095342867 0.088580951 0.71000004
0.10643238 0.087363817 0.71000004
0.11434382 0.087837152 0.71000004
0.12630858 0.086798579 0.71016681
0.13326363 0.087022729 0.71096307
0.1457033 0.087621644 0.71068197
0.15448855 0.087463215 0.71007395
0.16526049 0.086973496 0.71134377
0.17500757 0.086338408 0.71210003
0.18471503 0.087487161 0.71056014
0.19497642 0.085173532 0.71235901
0.20435992 0.083833084 0.71684837
0.21206254 0.081089206 0.71750009
-0.11098933 0.091853715 0.71760005
-0.10469335 0.094959967 0.71476579
-0.095412187 0.096111864 0.71096975
-0.077085719 0.091623813 0.71000004
-0.01287762 0.098932385 0.71150005
-0.0054340144 0.099280007 0.71400011
0.0053439289 0.098352037 0.7128126
0.014941402 0.098110825 0.71305889
0.026030615 0.097003117 0.71096313
0.035144053 0.096411154 0.71131265
0.044644069 0.096074305 0.71199995
0.055098355 0.095954247 0.71222723
0.064876229 0.095859051 0.71187174
0.074805103 0.094990969 0.71300018
0.084864527 0.095053479 0.71287042
0.094893433 0.095091872 0.71252012
0.10473058 0.09477637 0.71194243
0.11480393 0.095111996 0.71327978
0.12470878 0.095281757 0.71394092
0.13492016 0.095184155 0.71441501
0.1449334 0.09542568 0.71543735
0.15475142 0.095466182 0.71499997
0.16494238 0.095424637 0.715653
0.17444396 0.094793528 0.7163952
0.18436959 0.094776526 0.71383995
0.19429886 0.09336064 0.71648139
0.2017765 0.090845078 0.71900004
-0.10194559 0.10253143 0.71771437
-0.094796769 0.10490682 0.71618354
-0.087614045 0.10612787 0.71312499
-0.073859327 0.10727251 0.71807152
-0.065498471 0.10704703 0.71769565
-0.053927284 0.10607411 0.71699989
-0.044853382 0.105314 0.71651345
-0.03499946 0.10614358 0.71592838
-0.024633134 0.10536636 0.71593457
-0.015006023 0.10504664 0.71618348
-0.0054606409 0.10513838 0.71681625
0.0048706695 0.10442992 0.71597952
0.014827172 0.10470337 0.71633339
0.024763323 0.10410517 0.71581382
0.035022821 0.1045683 0.71678257
0.045054913 0.10495868 0.71678704
0.055034857 0.10438965 0.71587223
0.06470561 0.10444289 0.71639526
0.075066842 0.10464726 0.71716267
0.084634781 0.10374776 0.71665692
0.094754748 0.10339966 0.71758813
0.10471164 0.10221048 0.71705562
0.11407863 0.10165022 0.71763641
0.12431063 0.10197684 0.71899998
0.1363958 0.10220163 0.71814287
0.14432518 0.10462026 0.7177999
0.15438269 0.10184278 0.71899998
0.1636589 0.10184493 0.71850002
0.18642759 0.1054192 0.71665704
0.19036382 0.10202952 0.71900004
-0.081317954 0.11355524 0.71578574
-0.07823655 0.11510083 0.7166875
-0.037490714 0.11144499 0.71899998
-0.024651431 0.11093142 0.71900004
-0.01711905 0.11093143 0.71900004
0.14552002 0.11016002 0.71400011
0.18516724 0.11028343 0.71480006
0.14629334 0.0097066667 0.72800004
0.15738668 0.0097066667 0.72800004
0.16584529 0.0086881798 0.72488236
0.17484461 0.0072425399 0.72470826
0.18590412 0.0068001277 0.7244001
0.1948974 0.0058540949 0.72415006
0.20378217 0.0045876829 0.72370005
0.12802 0.015444286 0.72075003
0.13495737 0.014505357 0.72343749
0.14491919 0.012780439 0.72407699
0.15469748 0.011492064 0.72408336
0.16136572 0.010986667 0.72100008
0.0097066667 0.029120002 0.72800004
0.01599958 0.028771855 0.72700006
0.024925986 0.028387079 0.72700018
0.034127731 0.028019832 0.727
0.043771163 0.028520005 0.72785729
0.055917457 0.02592339 0.72712517
0.06421645 0.024636833 0.72406679
0.075064495 0.024303133 0.72028583
-0.064541906 0.039826669 0.72100008
-0.054348581 0.038913079 0.72500008
-0.04554072 0.037875958 0.72537506
-0.034384072 0.03840182 0.72481823
-0.025096271 0.036658488 0.7251668
-0.015673501 0.034187119 0.72482353
-0.0046907943 0.032373339 0.72433341
0.0048337304 0.031758249 0.72500014
0.014585142 0.031647619 0.72245014
0.023938861 0.030680005 0.72230011
0.048533335 0.030506669 0.72800004
-0.12014285 0.049714286 0.72500002
-0.11484119 0.048314407 0.72475004
-0.10513689 0.046548486 0.72368193
-0.095056355 0.045952316 0.72582752
-0.0849884 0.044003088 0.72523814
-0.075392187 0.04183238 0.72452635
-0.065142855 0.041142859 0.72000003
-0.05323581 0.040828954 0.72420007
-0.049092382 0.040794287 0.72600007
-0.031761907 0.040047623 0.72500002
-0.12292244 0.05525282 0.72363645
-0.11811937 0.051953446 0.72200012
-0.12411557 0.060913023 0.72133344
0.21805714 0.078171432 0.72000003
-0.12014285 0.08907143 0.72500002
-0.11719155 0.086536773 0.72170013
0.20751241 0.087669276 0.720182
0.21391718 0.086356878 0.72327286
-0.12139873 0.091856524 0.72700012
-0.11541738 0.095121235 0.72266656
0.17897144 0.098742865 0.72000003
0.1817143 0.098742865 0.72000003
0.19693741 0.097005203 0.72066689
0.20524207 0.095243484 0.72254997
0.21301804 0.093935125 0.72647065
-0.11262668 0.10361171 0.72571445
-0.10580916 0.1056684 0.72296673
-0.098057151 0.10971429 0.72000003
-0.073371425 0.10971429 0.72000003
-0.064685717 0.10971429 0.72000003
-0.057600003 0.10971429 0.72000003
-0.046628572 0.10971429 0.72000003
0.004114286 0.10971429 0.72000003
0.017142858 0.10971429 0.72000003
0.024857143 0.10954285 0.72000003
0.034971427 0.10971428 0.72000003
0.045257144 0.10971429 0.72000003
0.053485718 0.10971429 0.72000003
0.067062855 0.10916572 0.72000009
0.075885728 0.10948573 0.72000003
0.084923089 0.10897584 0.72000015
0.094667479 0.10809199 0.72028595
0.10531174 0.10680302 0.72116679
0.1153158 0.10624247 0.72124237
0.12512657 0.10632716 0.72106898
0.13439763 0.10598069 0.72087878
0.14561796 0.10588118 0.72057158
0.15516889 0.10621399 0.7217418
0.16506505 0.10644006 0.7225666
0.17501174 0.10486121 0.72347826
0.18192786 0.1051297 0.72253841
0.19540024 0.1022592 0.72119999
0.20490958 0.10234427 0.72505271
0.21077335 0.10261334 0.72800004
-0.1034719 0.11245085 0.72525007
-0.094981976 0.11498359 0.72343892
-0.086419642 0.11555548 0.72193748
-0.073586039 0.11500409 0.72138888
-0.064573288 0.11516567 0.72195727
-0.055181585 0.11513204 0.72184443
-0.045382135 0.11483197 0.72197616
-0.034398574 0.11565499 0.72106808
-0.024866667 0.11563044 0.72194439
-0.014917595 0.11524998 0.72231591
-0.0054998188 0.11479889 0.72176188
0.0048129368 0.11484081 0.7220208
0.015120682 0.11477527 0.72161895
0.024806077 0.11507177 0.72347635
0.035004701 0.11489607 0.72282958
0.045297984 0.11502463 0.72267449
0.055125948 0.11508569 0.72354752
0.064888164 0.11497816 0.72337204
0.074848153 0.11515175 0.72425562
0.084957346 0.11519053 0.72488898
0.095128603 0.11484931 0.72444892
0.10501521 0.11469419 0.72542864
0.11483561 0.11484125 0.72636724
0.12493844 0.11462884 0.72583336
0.13495766 0.11444794 0.72519135
0.14248806 0.11303186 0.7231667
0.15479322 0.11125457 0.72557151
0.164455 0.11168595 0.72668761
0.17458327 0.11153948 0.72742867
0.18117602 0.11075354 0.72500002
-0.092858173 0.12153612 0.72761548
-0.084998794 0.12390241 0.72596681
-0.0739232 0.12295871 0.72628009
-0.065531768 0.12398516 0.72668576
-0.055334497 0.12302655 0.72628582
-0.044544306 0.12246472 0.7268967
-0.035240762 0.12353106 0.72650009
-0.024675444 0.12325546 0.72706044
-0.015367967 0.12315416 0.72745472
-0.0054904129 0.12273397 0.72670019
0.0054696249 0.123349 0.727395
0.014838326 0.12405443 0.72709501
0.024655962 0.12280125 0.72748274
0.034417834 0.12311295 0.72721219
0.044250876 0.1220197 0.72691673
0.056109585 0.12176236 0.72788233
0.064758398 0.1223159 0.72708005
0.074409887 0.12153049 0.72762501
0.08510121 0.12150897 0.7276668
0.0951581 0.12191597 0.72769564
0.10168889 0.12110223 0.72800004
0.12572445 0.12064 0.72800004
0.13086 0.12047429 0.72700006
-0.077438101 0.13482857 0.72600001
0.0090133334 0.13034669 0.72800004
0.011093334 0.13034669 0.72800004
0.17533772 -0.0014027213 0.73642868
0.18616001 -0.0019160174 0.73736364
0.19561107 -0.0021939287 0.73650002
0.20245658 -0.0035137143 0.73710001
0.14757313 0.0072759795 0.73166668
0.15488052 0.0061562941 0.73467577
0.16492456 0.0044059106 0.73443598
0.17450479 0.0021364444 0.73273337
0.18487254 0.0018748766 0.73299992
0.19521919 0.00069591845 0.73207152
0.20212606 0.00046349209 0.73100007
0.037275717 0.019693334 0.7385
0.044992108 0.019683812 0.73814285
0.055618059 0.017963359 0.73352391
0.060911115 0.018598096 0.73233336
0.13297239 0.011139047 0.73100001
-0.034472384 0.029546669 0.73866671
-0.026126096 0.029496003 0.73740005
-0.014369735 0.028032171 0.73794448
-0.0056125172 0.028058141 0.73661906
0.0051848646 0.026649116 0.73551375
0.015167448 0.024992846 0.73412108
0.025136465 0.024433605 0.73317838
0.03543029 0.023647362 0.73333329
0.044611234 0.024124928 0.7319231
0.053032473 0.022934332 0.73085707
0.061180957 0.020857144 0.73000002
-0.10205238 0.039413337 0.73900002
-0.094544783 0.038097456 0.73777789
-0.085111208 0.037875284 0.73652387
-0.075241908 0.038230356 0.73324996
-0.06457039 0.038151145 0.73775011
-0.055294957 0.036368288 0.73585004
-0.043042924 0.034447622 0.73526675
-0.035247896 0.033473607 0.73326463
-0.025398094 0.03230444 0.73191297
-0.015345853 0.031385574 0.7323572
-0.0075531984 0.03100572 0.73042858
0.050752379 0.030590478 0.73000002
-0.12190287 0.045803234 0.73561537
-0.11490215 0.043539699 0.73453116
-0.10519392 0.042524986 0.73484623
-0.095030002 0.041759904 0.73204994
-0.085507624 0.040953811 0.73091668
-0.078561902 0.040323809 0.73000002
-0.066861913 0.040820953 0.73900002
-0.12236191 0.050057143 0.73000002
0.21969524 0.08899048 0.73000002
0.21622603 0.095187947 0.73041666
-0.1112381 0.10984762 0.73000002
-0.10984762 0.10984762 0.73000002
0.21391523 0.10115587 0.73083341
-0.11226697 0.11544563 0.73626316
-0.10566567 0.1174802 0.7324211
0.17728572 0.11401905 0.73000002
0.19563445 0.11912104 0.73890907
0.20527548 0.11886126 0.73815387
0.21527411 0.11768206 0.73743492
-0.11152001 0.12136 0.73800009
-0.10479049 0.12461718 0.73570007
-0.09508615 0.12639444 0.73102862
-0.084500805 0.12866335 0.73025006
-0.075311542 0.1285899 0.73131251
-0.064535432 0.12893258 0.73019999
-0.054448161 0.12817305 0.73028564
-0.045150321 0.12745401 0.73029149
-0.033754285 0.12834173 0.73026675
-0.025310606 0.12850365 0.73013324
-0.015053809 0.12852418 0.73093748
-0.0056406017 0.12818193 0.73063153
0.0035554499 0.12807947 0.73044443
0.017241906 0.12848 0.73000002
0.025714433 0.12739079 0.73123085
0.031414285 0.12844953 0.73300004
0.045899048 0.12517715 0.73019999
0.05364776 0.12438503 0.7302143
0.084819064 0.1232889 0.73000002
0.091093972 0.12502223 0.73200005
0.10631516 0.12529768 0.73527271
0.1129464 0.12641363 0.73857147
0.12628397 0.12799866 0.73842865
0.13438408 0.12784797 0.73852944
0.14522 0.12705249 0.737643
0.1548245 0.12685895 0.7374689
0.16495307 0.12657294 0.73765725
0.17495114 0.12646845 0.73775029
0.18473725 0.12579726 0.73630005
0.19494991 0.12482182 0.73475432
0.20520017 0.1243341 0.73428571
0.21498822 0.12430739 0.734851
-0.10384133 0.13336837 0.73820007
-0.094948627 0.13503492 0.73666668
-0.085393853 0.1345499 0.7339738
-0.074272223 0.13414986 0.73250002
-0.064805821 0.13481428 0.73408681
-0.054494705 0.1348377 0.73357123
-0.044870429 0.13461022 0.73327506
-0.03539316 0.13257976 0.7312727
-0.024831573 0.13302316 0.73215377
-0.015560953 0.13288988 0.73368186
-0.0058107632 0.13292436 0.73495007
0.0031653678 0.13163169 0.73163635
0.018874286 0.13002285 0.73400003
0.025188031 0.13012409 0.73457152
0.048562862 0.13935429 0.73900002
0.066392705 0.13888508 0.73900002
0.075043686 0.13838653 0.73900008
0.084944405 0.13735111 0.7390002
0.095259957 0.13579476 0.73870224
0.10549547 0.13501269 0.73787516
0.11518864 0.13485037 0.73746949
0.12512934 0.13497058 0.73812264
0.13534525 0.13487215 0.73786789
0.144648 0.13453509 0.73537779
0.15484747 0.13461395 0.73701894
0.16515972 0.134813 0.73707992
0.17509954 0.13477643 0.7367202
0.18479235 0.1347276 0.73541182
0.19501211 0.13423711 0.73693043
0.20517309 0.13466047 0.737091
0.2145011 0.13505808 0.73804682
-0.09219905 0.14076191 0.73900002
-0.071723178 0.14063492 0.7383334
-0.064617418 0.14046259 0.73742861
0.026040953 0.14709619 0.73900002
0.038005721 0.14568859 0.73900002
0.044982616 0.14449514 0.73900014
0.055178661 0.14226335 0.73900008
0.063839667 0.14225231 0.73900008
0.076558836 0.14279512 0.73900014
0.084144346 0.14388992 0.7390002
0.094609097 0.1430226 0.7390002
0.10564616 0.14266686 0.73876941
0.1157046 0.14260942 0.73854184
0.12584983 0.1435909 0.73884863
0.13451475 0.14301053 0.73892885
0.14572337 0.1430656 0.73877794
0.15291861 0.14178562 0.73900002
0.1666621 0.14104344 0.73900002
0.17273499 0.14136517 0.73900002
0.18529181 0.1446496 0.73576093
0.19141974 0.14441766 0.73745453
0.20903143 0.14076191 0.73900002
0.21458371 0.14107472 0.73899996
0.18579608 0.1531411 0.73857152
0.19044888 0.15301841 0.73700011
0.15827739 -0.004267253 0.74653858
0.16400048 -0.0038614292 0.74639302
0.17499724 -0.0031639563 0.74415386
0.18499734 -0.0046820953 0.74425
0.19543134 -0.0061519588 0.74470365
0.20146731 -0.0070907939 0.74400008
0.15726435 0.00078455027 0.74233341
0.16379876 0.00047047623 0.74133343
0.0059466669 0.01951671 0.74645472
0.015990879 0.018604109 0.74542111
0.025945086 0.018122144 0.7463333
0.035103738 0.017137511 0.74523079
0.046264771 0.015745273 0.74503332
0.051981978 0.015141978 0.74376941
-0.083460003 0.029959999 0.74900001
-0.079893336 0.029959999 0.74900001
-0.054117464 0.029431114 0.74766672
-0.04502308 0.028785435 0.74688232
-0.035288468 0.027467834 0.74599993
-0.025262773 0.027252471 0.74422735
-0.015783558 0.02501554 0.74278957
-0.0056680283 0.023364557 0.7435714
0.004080635 0.022216508 0.74188894
0.015525715 0.021171432 0.74100012
0.025436737 0.021195922 0.74185723
0.031757146 0.02117143 0.74100006
-0.12266024 0.038996432 0.7445001
-0.11429209 0.037191298 0.74536675
-0.10522651 0.036170691 0.74486113
-0.094993524 0.034022775 0.74435985
-0.085185654 0.033360548 0.74539304
-0.075090915 0.0340744 0.74551529
-0.065467052 0.033553589 0.74446684
-0.055616677 0.032545812 0.74295014
-0.046356313 0.032403689 0.74168754
-0.1227943 0.041637145 0.74100012
-0.11926572 0.040931433 0.74100006
0.1992 0.10956001 0.74700004
0.20511134 0.10927641 0.7472223
0.21368706 0.10904954 0.7474001
-0.11689752 0.11322821 0.74120015
0.14848953 0.11936001 0.74600005
0.15488347 0.1179383 0.74600023
0.16443548 0.11762097 0.74271441
0.17519574 0.11758503 0.74376208
0.18564816 0.11717443 0.74151999
0.19556259 0.11623422 0.74203992
0.20493828 0.11430266 0.74483347
0.21355994 0.11353258 0.74421883
-0.11016572 0.12782095 0.74150002
-0.10868 0.12844001 0.74100006
0.039946668 0.12982668 0.74900001
0.044153526 0.12961867 0.74780005
0.055404626 0.12928192 0.7458573
0.066213131 0.12910603 0.74666673
0.075805716 0.12816074 0.74622232
0.084624648 0.12788381 0.74461132
0.095536828 0.12868604 0.74583352
0.10522243 0.12726982 0.74240923
0.11538161 0.12669519 0.74285704
0.12462477 0.12570985 0.74296671
0.13647708 0.12555848 0.7426669
0.14489976 0.12277427 0.74271429
0.15517303 0.12212249 0.74229169
0.16492847 0.12160674 0.74199998
0.17522965 0.12152974 0.74190485
0.18453348 0.12134525 0.7413125
0.19054288 0.12138287 0.74100006
-0.11019047 0.13138032 0.74166673
-0.10461178 0.13529125 0.74127287
-0.098226666 0.13992001 0.74200004
-0.013142041 0.13788627 0.74300015
-0.005394794 0.13841373 0.74606681
0.0054259356 0.13791321 0.74792302
0.016217398 0.13686681 0.7469334
0.025698859 0.13666509 0.74447507
0.035333622 0.13642365 0.74510634
0.045449752 0.13552421 0.74523085
0.055222888 0.13521641 0.74337506
0.064964339 0.13473579 0.74370015
0.074958853 0.13378732 0.74427497
0.084453858 0.13255134 0.74270004
0.094371438 0.13125002 0.74293756
0.10124318 0.13043875 0.74166673
0.19689429 0.13926095 0.74100012
0.20465715 0.13973144 0.74100006
0.22018287 0.13690858 0.74100006
-0.071360007 0.14367113 0.74433339
-0.066611432 0.14360698 0.74400008
-0.054417148 0.1495962 0.74900001
-0.045144971 0.14850003 0.74844432
-0.035360925 0.14674205 0.74709094
-0.025580619 0.14645445 0.74608827
-0.015324152 0.14534101 0.7464667
-0.0056826826 0.14488675 0.74575508
0.005104762 0.14478368 0.74422401
0.015551359 0.14491001 0.74225008
0.025212888 0.14506619 0.74157429
0.034891825 0.14527869 0.74099964
0.045232095 0.14585029 0.74119216
0.054934062 0.14661661 0.74117643
0.065413803 0.14683901 0.74103111
0.073683463 0.14668459 0.74116123
0.085554302 0.14841717 0.74100012
0.094943665 0.14835922 0.74105275
0.10428745 0.14787233 0.74112499
0.11484051 0.14765997 0.7410714
0.12438214 0.14820002 0.74100012
0.13635673 0.14805591 0.74128574
0.14442348 0.14769596 0.74104553
0.15583131 0.14618318 0.74130535
0.16479471 0.14506875 0.74122202
0.17547514 0.14555903 0.74211109
0.18145293 0.14582351 0.74166679
0.1964725 0.14533402 0.74151731
0.20480306 0.14493638 0.74190259
0.2147882 0.14635897 0.74149984
0.22338027 0.1462799 0.74521059
-0.11294445 0.15931112 0.74900001
-0.10453577 0.15790607 0.74899989
-0.095854178 0.15720081 0.74900007
-0.085478224 0.15769474 0.74885184
-0.075359538 0.1570297 0.74863642
-0.065436445 0.15588708 0.74900025
-0.055564042 0.15528592 0.74793893
-0.045536023 0.15510876 0.74708176
-0.035527971 0.15489808 0.74606144
-0.025533527 0.15462415 0.74473459
-0.015620447 0.15479384 0.74555093
-0.0056803124 0.15479282 0.74555087
0.0048108655 0.15492211 0.74540734
0.015593606 0.15523264 0.7442382
0.02554984 0.15543601 0.74521422
0.035446443 0.15526187 0.74438113
0.045423947 0.15543416 0.7452144
0.055315923 0.15532011 0.74466664
0.065170713 0.15513802 0.74378598
0.075196996 0.15536474 0.74488103
0.085056379 0.15523222 0.74423826
0.095065363 0.15537012 0.74490488
0.10490698 0.15524232 0.74428576
0.11487611 0.15504251 0.74372089
0.12483175 0.15529443 0.74412209
0.13480222 0.15537998 0.74495256
0.14503482 0.15522841 0.74287999
0.15504031 0.15529318 0.74446172
0.16466887 0.1547341 0.74526519
0.17489524 0.15453774 0.74511516
0.18443447 0.15571891 0.74358338
0.19612969 0.15532497 0.74512506
0.20498645 0.1546922 0.7454614
0.21512787 0.15539564 0.74435562
0.22403531 0.15508662 0.74583352
-0.1131143 0.16314955 0.74899995
-0.10603192 0.16350621 0.74900001
-0.096563309 0.16214427 0.74846667
-0.086075559 0.16121334 0.74900001
-0.075613335 0.16121334 0.74900001
-0.062773339 0.16264001 0.74900001
-0.055830207 0.16280286 0.7488094
-0.045904882 0.16214037 0.74874991
-0.035603173 0.16235177 0.74766654
-0.02548597 0.16330612 0.74746662
-0.016000457 0.16274939 0.74739999
-0.0054229191 0.16346082 0.74790317
0.005143492 0.16348444 0.74777776
0.01573641 0.16419251 0.7475642
0.025632761 0.16376822 0.74762839
0.035817772 0.16426568 0.74756414
0.045676511 0.16460142 0.74771434
0.055376537 0.16510068 0.74789351
0.065536298 0.16470686 0.74797672
0.074697979 0.16382271 0.74787486
0.086269118 0.1641596 0.7472499
0.094937988 0.16456068 0.74702311
0.10592207 0.16419116 0.74811125
0.11565315 0.16485985 0.74755555
0.12521619 0.16505708 0.74702054
0.13522814 0.16459662 0.74769056
0.14496282 0.16473323 0.74554181
0.15552823 0.16410133 0.74647069
0.16521181 0.16488278 0.74704254
0.17495409 0.16500014 0.74675518
0.18499352 0.16497684 0.74651045
0.1946674 0.16438825 0.74758828
0.2045799 0.16371989 0.74781251
0.21531039 0.16256811 0.7475217
0.22395071 0.16226766 0.74768746
0.055640001 0.17120002 0.74900001
0.093446672 0.17191334 0.74900001
0.11841333 0.17120001 0.74900001
0.12404761 0.17157398 0.7485556
0.1391 0.17975999 0.74900001
0.14596595 0.17545807 0.74799997
0.15469757 0.17767031 0.74778253
0.16617097 0.17725793 0.74848145
0.17533842 0.17533468 0.74838799
0.18571293 0.17554316 0.74734133
0.19506578 0.1756756 0.74706262
0.20376579 0.17501411 0.74770379
0.1391 0.18118666 0.74900001
0.1465811 0.18319929 0.74774992
0.154774 0.18322028 0.74675
0.16571853 0.18318965 0.74811101
0.17458077 0.18240793 0.74736357
0.1853665 0.18151793 0.74860007
0.1938943 0.18106571 0.74849999
0.167127 -0.011035979 0.75566673
0.17501006 -0.011526148 0.75622725
0.1855201 -0.011526287 0.75619996
0.19481201 -0.012779335 0.75524253
0.20405798 -0.011603689 0.75543749
0.16771986 -0.007045541 0.75318182
0.17453973 -0.0067068962 0.7520799
0.18394694 -0.0076378426 0.7517333
0.19226953 -0.0085771438 0.75050002
0.20537524 -0.0086171431 0.75400001
0.038311429 0.0086742863 0.75900006
0.042909212 0.0083907936 0.75516671
-0.024577148 0.018794287 0.75900012
-0.013651006 0.018467514 0.75877786
-0.004631429 0.017703129 0.75657147
0.0043166443 0.016858321 0.7557143
0.014014207 0.014727461 0.75462502
0.024489179 0.013839653 0.75427282
0.034762815 0.012290354 0.75360864
0.043396365 0.011969608 0.75150007
-0.11189619 0.028876193 0.75800002
-0.10456746 0.028211586 0.75633335
-0.095116407 0.027619787 0.75661111
-0.084907584 0.02733851 0.7555238
-0.07537917 0.027826073 0.75650007
-0.064217478 0.027034122 0.75573915
-0.055391926 0.026460225 0.75395238
-0.043959703 0.02500852 0.75605255
-0.034704491 0.022736667 0.75467867
-0.024701465 0.022447808 0.75400001
-0.015369048 0.021300476 0.75506252
-0.0050133336 0.020035557 0.75133342
-0.12198732 0.035281695 0.75444454
-0.11585786 0.032354102 0.75580955
-0.10486757 0.031187678 0.75235289
-0.095748574 0.030627433 0.75140005
-0.088571429 0.030000001 0.75000012
-0.074740484 0.030218573 0.75100005
-0.065148577 0.030066669 0.75166672
-0.060000002 0.030000001 0.75000006
-0.033223949 0.13884735 0.75371432
-0.028761907 0.13949525 0.75500005
-0.017881906 0.13875619 0.75100005
0.0042857146 0.13714287 0.75000006
0.0125 0.13571429 0.75000006
0.037142858 0.1314286 0.75000012
0.04231162 0.13178365 0.75040001
0.050133336 0.13034669 0.75200003
-0.1031672 0.1487325 0.75811112
-0.09477593 0.14912385 0.75800002
-0.084736347 0.14785391 0.75646144
-0.075596049 0.14703533 0.75369239
-0.063775867 0.14713997 0.75209528
-0.054960616 0.14641407 0.75405878
-0.044295534 0.14416161 0.751077
-0.034761544 0.14178194 0.75152379
-0.024655076 0.1419417 0.75173908
-0.017714288 0.14085716 0.75000006
-0.12112001 0.15932858 0.75700009
-0.11390699 0.15527491 0.75425708
-0.10571603 0.15301409 0.75329411
-0.094475426 0.1522352 0.7528801
-0.084826283 0.1527023 0.75183344
-0.074809976 0.15172642 0.75114286
-0.065714292 0.15047619 0.75000006
-0.060000002 0.15000001 0.75000006
-0.12104 0.16354954 0.75650007
-0.11599825 0.16603833 0.75146157
-0.10319697 0.1675185 0.75040007
-0.094310343 0.16666929 0.751077
-0.084819548 0.16575725 0.75117958
-0.074322209 0.1659421 0.75155568
-0.065421477 0.16612388 0.7511726
-0.054224107 0.16696514 0.75086957
-0.044247616 0.16697128 0.75127995
-0.035000004 0.16714287 0.75000006
-0.025211973 0.16792139 0.7502858
-0.014061623 0.16779517 0.75141174
-0.0057231747 0.16839494 0.75133336
0.0040294374 0.16825631 0.75090915
0.011428572 0.16857144 0.75000012
0.024285715 0.16857146 0.75000012
0.032857146 0.16857146 0.75000006
0.044761907 0.16809526 0.75000012
0.06071429 0.16857144 0.75000006
0.07755103 0.16734697 0.75000012
0.081948057 0.16727275 0.75000012
0.097857147 0.16857144 0.75000006
0.10285716 0.16803573 0.75000006
0.11142858 0.16857144 0.75000012
0.13571431 0.16857144 0.75000012
0.155 0.16857144 0.75000006
0.19649383 0.16791335 0.75025004
0.20498244 0.16782776 0.75022227
0.21407144 0.1672143 0.75000006
0.22387096 0.16736689 0.75099999
-0.12144002 0.17204003 0.75900006
-0.11449192 0.17451215 0.75591421
-0.10484447 0.17522348 0.75402039
-0.094790809 0.17522344 0.75402027
-0.084728241 0.17520289 0.75393867
-0.07480631 0.17520899 0.75435424
-0.064696148 0.17468192 0.75478542
-0.054428577 0.17478089 0.75422704
-0.044397425 0.1749725 0.75333327
-0.034444369 0.1747462 0.75158352
-0.024489144 0.17485942 0.75281984
-0.014364977 0.17524524 0.7541225
-0.0050259419 0.17520028 0.75392836
0.0043075215 0.17516507 0.7537753
0.014334071 0.1748969 0.75261253
0.024366103 0.17486872 0.75248969
0.034209765 0.17486797 0.75170231
0.044329684 0.17490289 0.75225008
0.054174006 0.17575105 0.75113535
0.064448386 0.17482808 0.75153208
0.074464671 0.17470573 0.75179607
0.084471844 0.17495027 0.75245851
0.094809435 0.17567228 0.75133353
0.10430077 0.17474861 0.75119144
0.11424816 0.17532653 0.75216275
0.12472036 0.17641105 0.75181264
0.1347598 0.17494152 0.75160873
0.14120246 0.17520083 0.75042862
0.15507543 0.17265007 0.75013345
0.16374382 0.17305422 0.75000006
0.18232143 0.17339288 0.75000006
0.19771431 0.17114286 0.75000006
0.20527108 0.17212395 0.75082356
0.21514194 0.17430259 0.75375026
0.22369926 0.17359309 0.75459081
-0.11240429 0.18107572 0.75900006
-0.10519239 0.18392743 0.75766671
-0.095641762 0.18383747 0.75804001
-0.084877029 0.18362726 0.75804347
-0.075920954 0.18254043 0.75714284
-0.064418204 0.18298241 0.75840753
-0.055405024 0.1828554 0.75827992
-0.044190902 0.18491644 0.75599986
-0.034651183 0.18498392 0.75397825
-0.024456695 0.18486732 0.75528544
-0.014377686 0.18475087 0.75480932
-0.0050986125 0.18488654 0.7557714
0.0043267128 0.18527912 0.75695258
0.014399501 0.18505606 0.75604743
0.024492837 0.18513298 0.75635713
0.034520365 0.18511942 0.75665855
0.044770736 0.18520816 0.75702441
0.054643907 0.18498139 0.75647497
0.064885572 0.18489771 0.75575602
0.074891806 0.18507542 0.75611919
0.084621765 0.18431108 0.75648475
0.095451988 0.18370733 0.7560001
0.10490535 0.1841542 0.75640649
0.11550631 0.18366097 0.75692326
0.1254873 0.18328415 0.75616658
0.13452435 0.18393975 0.75373524
0.14201906 0.18464214 0.75144446
0.16566065 0.18693843 0.75300002
0.18428573 0.18285716 0.75000012
0.19475609 0.18516266 0.75583333
-0.042578898 0.19494125 0.7572
-0.034387551 0.19493425 0.75657791
-0.02596592 0.19436108 0.75885719
-0.015052222 0.19135289 0.75866663
-0.0086742863 0.1908343 0.75900006
0.0079514291 0.1908343 0.75900006
0.015451073 0.19200896 0.75899994
0.022474289 0.19188574 0.759
0.032528572 0.1908343 0.75900006
0.045540005 0.1908343 0.75900006
-0.08203049 0.20478444 0.75820005
-0.078377619 0.20527574 0.75849998
-0.052581251 0.20561105 0.75794733
-0.045261987 0.20340088 0.759
-0.034641452 0.20412844 0.75863171
-0.027269285 0.20352927 0.75849992
0.17626886 -0.016300095 0.76385003
0.18539421 -0.015960634 0.76441669
0.19103113 -0.016972065 0.76366675
0.20335287 -0.015738731 0.76258337
0.015683303 0.0076949843 0.76720005
0.024596287 0.007368953 0.76640004
0.035164721 0.0065858397 0.76508689
0.04064 0.0065314285 0.76200002
-0.086420953 0.019041907 0.76900005
-0.063717142 0.019041905 0.76900005
-0.054295626 0.018439047 0.76830006
-0.045252066 0.017512836 0.76633334
-0.034632299 0.01701851 0.76520002
-0.024763539 0.016018867 0.7647143
-0.014822566 0.015096414 0.76342297
-0.0050896192 0.013810192 0.76345009
0.0040881317 0.012208058 0.76476932
0.014527077 0.010894695 0.76271433
0.023878442 0.010685888 0.76190919
0.031889524 0.010146668 0.76100004
-0.12158793 0.02869397 0.76600003
-0.11440019 0.026589267 0.76600009
-0.10528741 0.024437148 0.76523072
-0.094545484 0.02310127 0.76412505
-0.084936351 0.022572283 0.76386201
-0.07463105 0.023300387 0.76476681
-0.065407157 0.022457981 0.76380002
-0.054743774 0.022272386 0.76417392
-0.046119198 0.021912681 0.76163155
-0.038412385 0.020293334 0.76100004
-0.12180001 0.031174764 0.76125002
-0.11886096 0.030440001 0.76100004
-0.1206654 0.14839619 0.76633346
-0.11467878 0.14747651 0.76490319
-0.10535061 0.1461495 0.76231021
-0.095395043 0.14662071 0.76113337
-0.085529536 0.14465526 0.76107144
-0.079102859 0.14369144 0.76200002
-0.12297318 0.15523717 0.76456004
-0.11759715 0.15288746 0.76141667
-0.12320954 0.16089714 0.76100004
-0.12107524 0.17762548 0.76125008
-0.11837779 0.1792578 0.76100004
0.22529742 0.17932682 0.7610001
-0.1224044 0.18656383 0.76443756
-0.11507724 0.18574905 0.76152754
-0.10436573 0.18916288 0.76100004
-0.094508953 0.188728 0.76100004
-0.085844025 0.1885186 0.76099998
-0.074805789 0.18735093 0.76099992
-0.065953329 0.18791102 0.76099998
-0.054818362 0.18824045 0.76099998
-0.048921429 0.18880048 0.76100004
-0.0028990477 0.18988763 0.76100004
0.037687622 0.18988763 0.76100004
0.042036191 0.18988763 0.76100004
0.057256192 0.18988763 0.76100004
0.060880002 0.18988763 0.76100004
0.086246669 0.18916288 0.7610001
0.094943807 0.18858306 0.7610001
0.10412413 0.18940446 0.7610001
0.11480229 0.18829314 0.7610001
0.12386841 0.18817456 0.76100016
0.13045715 0.1884381 0.76100004
0.14406858 0.18918097 0.76400006
0.17885047 0.18979999 0.7665
0.18602747 0.18919174 0.7665
0.19424148 0.18908571 0.76166672
0.20583194 0.18704726 0.76433331
0.21491982 0.1857971 0.76465851
0.22457449 0.1858228 0.76481575
-0.12310381 0.1940755 0.76825005
-0.11482721 0.1946954 0.76450008
-0.10441203 0.19504754 0.76133311
-0.095022716 0.19512539 0.7616387
-0.085619621 0.1949864 0.76155776
-0.075397871 0.1949918 0.76158106
-0.065307751 0.19520022 0.76192838
-0.055172656 0.1952801 0.76223791
-0.047702052 0.19523278 0.76131576
-0.022953756 0.19619781 0.76111108
-0.014290032 0.19668828 0.76299983
-0.004981061 0.19547951 0.76259995
0.0041735712 0.19548662 0.76232493
0.013913262 0.19689721 0.76265407
0.025446272 0.19630909 0.76267731
0.034757245 0.19525447 0.76291662
0.045003012 0.19532478 0.76377416
0.055250451 0.19483258 0.76331431
0.065086603 0.19490375 0.76412499
0.074650295 0.19492647 0.76475012
0.085424654 0.19452265 0.76459384
0.094634503 0.19499044 0.76528949
0.10522858 0.19507182 0.76560533
0.11493061 0.19463708 0.76576948
0.12526622 0.19471322 0.76640558
0.13460568 0.19477065 0.76600021
0.14477238 0.19493356 0.7665751
0.15437065 0.19494568 0.76707721
0.16493946 0.19486775 0.76631594
0.17524686 0.19477424 0.76709116
0.1851445 0.19386742 0.76744843
0.19484274 0.19484803 0.7644102
0.20464867 0.19411401 0.76664311
0.21498127 0.19377635 0.76778579
0.22420615 0.19386986 0.76655573
-0.11461298 0.20461869 0.76834393
-0.10503988 0.20497784 0.76590484
-0.095193937 0.2048066 0.76484215
-0.086916886 0.20407796 0.76166648
-0.074342862 0.20394589 0.76127011
-0.06532827 0.20469686 0.76216304
-0.056323998 0.20358875 0.76124972
-0.044950105 0.20506145 0.76125789
-0.035150953 0.20836905 0.76100004
-0.02272127 0.20345481 0.76144439
-0.014801472 0.2031465 0.76677293
-0.0054284809 0.20358013 0.76733345
0.0040924447 0.20257664 0.76733345
0.014628571 0.20260672 0.76800007
0.024588011 0.20280749 0.76729417
0.035192385 0.20146725 0.76730776
0.045373335 0.20125566 0.76842868
0.0556194 0.20106268 0.76845467
0.06455905 0.20172523 0.76812506
0.071040958 0.20067239 0.76900005
0.089350484 0.20067239 0.76900005
0.095288463 0.20082393 0.76833344
0.1039981 0.20067239 0.76900005
0.16844764 0.20067239 0.76900005
0.17137715 0.20067239 0.76900005
0.19696982 0.20240547 0.76842862
0.2012583 0.20243011 0.76900005
-0.10106858 0.21092573 0.76900005
-0.093797721 0.21154478 0.76700002
-0.083787538 0.21138114 0.76200008
-0.076247759 0.21152204 0.76200008
-0.057557147 0.21128573 0.76500005
-0.03458374 0.21211198 0.76392317
-0.029168256 0.21293335 0.76566666
0.1793981 -0.021322858 0.77200007
0.18547659 -0.021857653 0.77526683
0.19510657 -0.022423524 0.77573919
0.20319557 -0.022168573 0.77583337
0.18689716 -0.019131048 0.77260005
0.19571367 -0.01864 0.77255565
0.20209303 -0.018662542 0.77350008
-0.031120002 0.0088914288 0.77800006
-0.025192384 0.0088914298 0.77800006
-0.012838732 0.0086406358 0.77766675
-0.0047325725 0.00768635 0.77620006
0.0045891362 0.0067166141 0.77462959
0.014810952 0.0042719054 0.77380002
0.024926836 0.0035579833 0.77511764
0.032802947 0.0029546325 0.77636367
-0.11218286 0.018881906 0.77750009
-0.10488953 0.018465037 0.77557153
-0.094903387 0.017976385 0.77366674
-0.085307509 0.017611429 0.77468753
-0.075273618 0.018447077 0.77485728
-0.064423934 0.016983105 0.7740435
-0.05495286 0.015554048 0.77325004
-0.044636603 0.013715647 0.77557153
-0.035377596 0.012420951 0.77390474
-0.025061406 0.011790385 0.7739048
-0.014748571 0.011056325 0.77407146
-0.0058873813 0.01066881 0.77262503
-0.12277159 0.025802538 0.77425003
-0.11622627 0.022636892 0.77342105
-0.10445791 0.021037905 0.77240008
-0.096925721 0.02056 0.77100009
-0.077100009 0.02056 0.77100003
-0.12515238 0.030920003 0.77300006
-0.12081398 0.14448255 0.77666676
-0.11604146 0.1429043 0.7734763
-0.12458413 0.19839746 0.77250004
0.077834293 0.19972572 0.77100009
0.082974285 0.19972572 0.77100003
0.11895429 0.19972572 0.77100003
0.12409429 0.19972572 0.77100003
0.13951428 0.19972572 0.77100003
0.14098287 0.19972572 0.77100003
0.15629797 0.19930615 0.77100003
0.16117573 0.19935858 0.77100003
0.17696285 0.19972572 0.77100003
0.18504003 0.19867676 0.77100003
0.19164857 0.19899143 0.77100003
0.20633429 0.19862428 0.77100003
0.21441144 0.19825715 0.77100003
0.22232954 0.19877145 0.77300012
-0.12310926 0.2032689 0.77429414
-0.11895429 0.20413145 0.77100009
-0.02056 0.20853715 0.77100003
-0.014367328 0.20815064 0.7720769
-0.0044091013 0.20828763 0.77188891
0.0046340004 0.2074925 0.77229995
0.014713106 0.20745337 0.77242851
0.025255555 0.20767339 0.77233338
0.035617951 0.20704232 0.77300018
0.045060117 0.20653707 0.77207989
0.054550614 0.20658337 0.77258623
0.064876266 0.20718591 0.77340013
0.075329967 0.20573036 0.77355021
0.085332178 0.20559309 0.77339047
0.095159553 0.20606963 0.7725668
0.10487245 0.20602676 0.77258837
0.11469643 0.20525424 0.77351296
0.12503158 0.2054209 0.77362508
0.13492365 0.20497102 0.77415633
0.14467721 0.20479354 0.7734859
0.15491082 0.20494871 0.77328593
0.16460624 0.20547247 0.77364886
0.17543612 0.20493461 0.77420008
0.18528567 0.20387164 0.7750001
0.19455713 0.20416771 0.77330434
0.206276 0.20480344 0.7741037
0.21475533 0.20347738 0.77480656
0.22373092 0.20209697 0.77600002
-0.11358795 0.21395123 0.7718001
-0.10480151 0.21523486 0.77330321
-0.095622674 0.21647108 0.77415001
-0.085472599 0.21752776 0.77366674
-0.074601173 0.21782692 0.77561116
-0.065831758 0.21598858 0.7766667
-0.056312382 0.21635811 0.77800006
-0.046106037 0.21426159 0.77666676
-0.034897145 0.21747251 0.77405566
-0.024719823 0.2151808 0.77625012
-0.014655933 0.21471441 0.77504897
-0.0052692257 0.21460602 0.77471435
0.0038532512 0.21299075 0.77534795
0.015200907 0.21296293 0.77590483
0.025124764 0.21354833 0.77585715
0.034861144 0.21325015 0.77719998
0.045129411 0.2127057 0.77611768
0.054137304 0.21327941 0.77600002
0.065684699 0.21391653 0.77761537
0.074882895 0.21419023 0.77717263
0.084298708 0.2134428 0.77645463
0.094403654 0.21310478 0.77600002
0.1047663 0.21285467 0.77630001
0.11805843 0.21092448 0.77800006
0.1239243 0.21172716 0.778
0.13510033 0.21043049 0.77800006
0.14448571 0.21043049 0.77800006
0.15337715 0.21043049 0.77800006
0.16509335 0.21123683 0.77733344
0.17190099 0.21043049 0.77800006
0.19808128 0.21635811 0.77800006
0.20473085 0.21453422 0.778
0.21564746 0.21840362 0.77618188
0.22538918 0.21720086 0.77542871
0.23323949 0.21665339 0.77545464
-0.11237606 0.22179593 0.77628577
-0.10705207 0.22101399 0.77700007
-0.093905911 0.22113489 0.77759999
-0.084116995 0.22312181 0.77635294
-0.076471731 0.22325648 0.77600002
-0.033594459 0.22433452 0.77600014
-0.028735237 0.22411048 0.77545464
0.15797105 0.22791696 0.77800006
0.16472247 0.22703892 0.77774191
0.17478736 0.22666337 0.77747065
0.18376037 0.22756502 0.77771425
0.19677785 0.22446457 0.77606064
0.20527259 0.22446837 0.77530605
0.21503459 0.2245712 0.77423263
0.22548209 0.22496928 0.77418625
0.2336216 0.22527197 0.7735557
0.1434484 0.23310363 0.778
0.15782285 0.23340002 0.778
0.16413578 0.23313327 0.77799994
0.17469044 0.23231037 0.77799994
0.18462791 0.23274623 0.77799994
0.19787963 0.2313547 0.77760011
0.2058021 0.2324461 0.77704769
0.2146382 0.23222142 0.77682352
0.22470973 0.23154114 0.77692312
0.23295088 0.23250894 0.77700001
0.18850125 -0.031989392 0.78900009
0.19665961 -0.030271839 0.78900009
0.20254162 -0.031506669 0.78766674
0.186708 -0.026577149 0.78176934
0.19444773 -0.026739754 0.78210527
0.20353393 -0.026949767 0.78318757
0.006566429 -0.0020645238 0.78800011
0.015267685 -0.0023974611 0.78606665
0.025887543 -0.0035199234 0.78308004
0.033099525 -0.0042769052 0.78100008
-0.084911436 0.0090171434 0.78900003
-0.078900002 0.0090171434 0.78900003
-0.052513652 0.0090019051 0.78766674
-0.043727778 0.0082200002 0.78483331
-0.034994185 0.0070734839 0.78442109
-0.025020789 0.0057000411 0.78265232
-0.015009314 0.0045936517 0.78372228
-0.0054732272 0.0026459964 0.78366673
0.0042726407 0.001624156 0.78363645
0.013603404 0.0010619048 0.78128582
0.025891906 0.00061904767 0.78050011
0.033428572 0 0.78000003
-0.12120001 0.018874921 0.78233337
-0.11479778 0.016845187 0.78444439
-0.10511049 0.014864461 0.78478944
-0.094543032 0.013889357 0.78408706
-0.0846714 0.01301655 0.78365529
-0.074939728 0.013297547 0.7840305
-0.065404378 0.012537429 0.78400004
-0.055117 0.011913785 0.78205258
-0.045463551 0.010958789 0.78136367
-0.037885714 0.0104 0.78000003
-0.1235619 0.022780953 0.78000009
-0.12049714 0.13983619 0.78100002
-0.11826572 0.13983619 0.78100002
-0.12219755 0.14196026 0.78100002
-0.13124573 0.20432574 0.78300011
-0.12801905 0.20533466 0.78060007
0.17680001 0.20948572 0.78000003
0.18599483 0.20913799 0.78028589
0.19402309 0.20905018 0.7802223
0.21720859 0.20903525 0.78016675
0.22548389 0.20762463 0.78126091
0.23317172 0.20679718 0.78471428
-0.064380951 0.21939048 0.78000009
-0.054577466 0.21822974 0.78027779
-0.045082163 0.21788041 0.7802667
-0.023028571 0.21988572 0.78000003
-0.019314285 0.21988572 0.78000003
-0.0014857143 0.21988572 0.78000003
0.0048816334 0.21797553 0.78000003
0.014562414 0.21764494 0.78013343
0.025257144 0.21914291 0.78000003
0.035251945 0.21772468 0.78000009
0.044329632 0.21744061 0.78011113
0.055342861 0.21840002 0.77999997
0.064535715 0.21877146 0.77999997
0.075771436 0.21939048 0.78000009
0.085122228 0.21819192 0.78058338
0.095407099 0.21815726 0.78154558
0.10534228 0.21789452 0.78146166
0.11496172 0.21618973 0.78187102
0.12478969 0.21648239 0.78173089
0.13513684 0.21578218 0.78224254
0.14501829 0.21623175 0.78306448
0.15535901 0.21595772 0.78425646
0.16527778 0.21666579 0.78350002
0.17522524 0.21629605 0.78402787
0.18522964 0.21585283 0.78423822
0.19501747 0.21566825 0.78197747
0.20522043 0.21584265 0.78105575
0.21503468 0.21402644 0.78048402
0.22477025 0.21253708 0.78054553
0.2343491 0.21217333 0.78104758
-0.11134636 0.22641587 0.78116673
-0.10468712 0.22555211 0.78143358
-0.095885567 0.22607164 0.78159279
-0.08628314 0.22728777 0.78100002
-0.072880335 0.22687194 0.78088236
-0.065090403 0.22512828 0.78145975
-0.055214848 0.22499695 0.78187531
-0.044701856 0.2244418 0.78227538
-0.038039245 0.22570936 0.78010011
-0.023929158 0.2249271 0.78142321
-0.014886206 0.22481452 0.78162873
-0.0052227941 0.22537586 0.78356671
0.0046590953 0.22462414 0.78290027
0.014817882 0.22474018 0.78363436
0.025114402 0.22533774 0.78390932
0.035102095 0.22370933 0.78484005
0.044746809 0.22513436 0.78500009
0.055227846 0.22545744 0.78552961
0.064098559 0.22448683 0.78457892
0.076288037 0.22485566 0.78522229
0.085730106 0.22605132 0.78618181
0.095352083 0.22560535 0.78748655
0.10541097 0.226082 0.78758532
0.11503461 0.22558792 0.78434688
0.12524097 0.22559226 0.78414899
0.13492617 0.22500229 0.78273988
0.14491351 0.22459345 0.7824468
0.15450713 0.22429708 0.78143483
0.16462827 0.22229336 0.78129184
0.17478079 0.22182243 0.78109527
0.18529537 0.22273283 0.78082776
0.19175121 0.22479424 0.78009528
-0.11064762 0.23026668 0.78500003
-0.10421178 0.23302533 0.78688228
-0.094324835 0.23391396 0.78828555
-0.084710486 0.23410533 0.78489643
-0.074843906 0.23283933 0.78381819
-0.065448038 0.23323822 0.78688878
-0.055084221 0.23199415 0.78614289
-0.044449076 0.23203619 0.78711754
-0.034652896 0.23204499 0.7832309
-0.024647795 0.23167412 0.78654552
-0.015885333 0.23124552 0.78679997
-0.0052600005 0.23144001 0.78900003
0.0007514286 0.23144001 0.78900003
0.016508846 0.23892833 0.78785723
0.02514882 0.23627709 0.78741026
0.035030473 0.2365739 0.78641933
0.044919107 0.23506126 0.78606147
0.055087149 0.23518674 0.78582627
0.065081351 0.23553142 0.78460789
0.074808463 0.2349571 0.78377748
0.084790558 0.23496066 0.7815097
0.095234275 0.23465629 0.78189087
0.10466984 0.23447551 0.78123397
0.11452246 0.23499453 0.78083652
0.12484156 0.23482259 0.78026533
0.13519999 0.23474289 0.78000009
0.14518812 0.23507741 0.78003144
0.15368453 0.23504125 0.78012526
0.16545142 0.23808193 0.7800588
0.17549568 0.23732461 0.78028005
0.18486688 0.23741765 0.7800526
0.19413301 0.23535246 0.7801432
0.20433405 0.23749992 0.78018188
0.21557593 0.23739055 0.78004545
0.22508426 0.2369732 0.78019249
0.23516676 0.23716828 0.78026938
0.24078858 0.23781651 0.7803334
-0.052900579 0.24917372 0.78900003
-0.046051841 0.24840087 0.78899997
-0.034912527 0.24710439 0.7889998
-0.02515517 0.24687602 0.78753853
-0.014761525 0.24524327 0.78722221
-0.0053179227 0.24554686 0.78736389
0.0046946583 0.24474445 0.78734779
0.015151039 0.24520406 0.78659105
0.025414074 0.24517983 0.78487748
0.035101261 0.24496603 0.7841906
0.044865202 0.24455224 0.78346837
0.055183094 0.24460903 0.78304112
0.065303333 0.2448341 0.78185016
0.074982159 0.24530368 0.78236854
0.08503361 0.24512294 0.78320521
0.09512905 0.24494445 0.78220022
0.10486184 0.24492946 0.7833125
0.11493252 0.24479465 0.78362864
0.12524408 0.24466014 0.78305727
0.13496107 0.24507517 0.78219515
0.14513519 0.24481797 0.78324997
0.15514857 0.24493031 0.78227514
0.16486385 0.244664 0.78138477
0.1747528 0.24528798 0.78357166
0.18523936 0.24497576 0.78343254
0.1950556 0.24529482 0.78108507
0.20460579 0.24515015 0.78171813
0.2147122 0.24525183 0.78241473
0.22477074 0.24476363 0.78311449
0.23479745 0.24497299 0.78375012
0.24242699 0.24600135 0.7863847
-0.070634283 0.25623715 0.78900003
-0.06372115 0.25571114 0.78899986
-0.054814748 0.25524846 0.78899974
-0.045367494 0.25370106 0.78899974
-0.035212375 0.25524172 0.78823817
-0.025407106 0.25492224 0.78754187
-0.015032178 0.25519797 0.78751051
-0.0052513829 0.25508791 0.78776199
0.0045623812 0.25493568 0.78758335
0.014832218 0.25505757 0.78708506
0.025143545 0.25548559 0.78720516
0.034764003 0.25602883 0.78810513
0.045034952 0.25562128 0.78811646
0.055148572 0.255182 0.7872777
0.065019116 0.25469247 0.78774059
0.075084895 0.2560387 0.78838086
0.085391052 0.25529492 0.78745461
0.095087357 0.25579825 0.78732431
0.10509297 0.25509584 0.7874999
0.11520436 0.25479904 0.78747845
0.12495042 0.25560427 0.78840905
0.13505569 0.25574407 0.78804988
0.14561005 0.25519687 0.78810221
0.1550937 0.25490075 0.78615016
0.16498382 0.25553089 0.78635013
0.17564218 0.25521782 0.78726089
0.18524405 0.25477883 0.78681415
0.19484839 0.25520945 0.78397578
0.20574178 0.255 0.7851876
0.21509841 0.25557408 0.78695011
0.22531909 0.25530714 0.78718197
0.23481582 0.25476423 0.78778052
0.24198726 0.25280365 0.78860009
-0.030808572 0.26224858 0.78900003
-0.02254286 0.2614972 0.78900003
-0.015028574 0.26149717 0.78900009
-0.0037571429 0.26149717 0.78900003
0.0082657151 0.26149717 0.78900003
0.014558927 0.26253039 0.78899992
0.021540953 0.26199812 0.78900003
0.049594287 0.26149717 0.78900003
0.051097143 0.26149717 0.78900003
0.074391432 0.26149717 0.78900003
0.085448176 0.26171187 0.78900009
0.090171434 0.26224858 0.78900003
0.10593985 0.26372379 0.78891653
0.11459816 0.26471353 0.78861272
0.12310904 0.26249906 0.78900003
0.13611594 0.26192653 0.78900009
0.14638989 0.26343971 0.78889465
0.15486838 0.2648629 0.78734142
0.16335882 0.2643151 0.7879231
0.17568401 0.26209831 0.78900003
0.18474939 0.26210654 0.78857142
0.19639342 0.26340717 0.78786957
0.2041181 0.26417583 0.78755176
0.21455497 0.26264644 0.78899992
0.2244551 0.26186284 0.78845459
0.23219144 0.26149717 0.78900003
0.11496857 0.27051428 0.78900003
0.15737063 0.27201715 0.78900009
0.16418715 0.27697659 0.78899986
0.18710572 0.2790305 0.78900003
0.19635904 0.27596757 0.78899974
0.20505181 0.27557197 0.7885896
0.21277295 0.2748647 0.78899986
0.16361105 0.28273752 0.78899997
0.18660478 0.28153524 0.78900003
0.19537143 0.28103429 0.78900003
0.20463905 0.28203619 0.78900003
0.19525187 -0.034534317 0.79483873
0.20128927 -0.035246264 0.79457152
0.025730794 -0.010595556 0.79466677
-0.033646263 -0.0017365987 0.79771435
-0.025817145 -0.002025397 0.79733336
-0.014353941 -0.0020706495 0.79690909
-0.0050783199 -0.0029434175 0.79505885
0.0037737568 -0.0042831749 0.79300004
0.015378826 -0.0058689076 0.79317659
0.024783747 -0.0076596825 0.79346675
0.030247621 -0.0090742856 0.79400003
-0.11200686 0.0084982878 0.79680008
-0.1039743 0.0072782859 0.79630029
-0.094718367 0.0062553659 0.79519999
-0.085307814 0.0058127632 0.79339999
-0.075021818 0.0070038103 0.79354548
-0.065149799 0.0068133315 0.79542869
-0.054972343 0.0059873527 0.79463995
-0.045059688 0.0044687307 0.79408348
-0.035132956 0.0019913143 0.79368007
-0.02533238 0.0013202382 0.79400003
-0.016396193 0.00021496601 0.79257149
-0.121472 0.015406477 0.79320002
-0.11567809 0.012522668 0.79230005
-0.10512909 0.01135795 0.79107696
-0.097020969 0.010970886 0.79057151
-0.065457143 0.010533334 0.79000002
0.034653332 0.22876254 0.79100007
0.067929253 0.227649 0.79000008
0.075291246 0.22738326 0.79057139
0.081257142 0.22646666 0.79000002
0.10232382 0.2257143 0.79000008
-0.10452019 0.2378075 0.79109091
-0.095426977 0.23863015 0.79000008
-0.088028572 0.23925714 0.79000002
-0.074329257 0.23874125 0.79400003
-0.064014897 0.23769769 0.79163641
-0.054394763 0.23728168 0.79187489
-0.046074476 0.23731504 0.79179996
-0.034305368 0.23822719 0.79210526
-0.025247168 0.23759095 0.79304749
-0.014744079 0.23667629 0.79303998
-0.0051630102 0.2366892 0.7927742
0.0047178096 0.23650543 0.79275012
0.014467919 0.23532325 0.79137152
0.025580952 0.23302314 0.79000008
0.034642182 0.23195614 0.79076189
0.058685716 0.23022857 0.79000002
0.063868783 0.23056296 0.79000002
0.072980955 0.23022857 0.79000002
-0.10187969 0.24547683 0.79633331
-0.094728798 0.2455947 0.79466671
-0.084665552 0.24594375 0.7953639
-0.075055867 0.24563289 0.79604775
-0.064908355 0.245603 0.79414833
-0.055417147 0.24480085 0.79242897
-0.044738572 0.24397679 0.7921502
-0.034971759 0.24224284 0.79078269
-0.024548572 0.24227159 0.79142851
-0.015801907 0.24100101 0.79307693
-0.0054217144 0.241184 0.79040003
0.001504762 0.24076192 0.79000008
-0.1430113 0.25764951 0.79676926
-0.13476613 0.25632918 0.79422218
-0.12485564 0.25592873 0.7926001
-0.1148615 0.25415507 0.79200023
-0.1051231 0.2542643 0.79184932
-0.095040157 0.2544663 0.79125524
-0.085090883 0.25451604 0.79066706
-0.075458571 0.2543028 0.79029828
-0.06578508 0.25385588 0.7901668
-0.058685716 0.25129524 0.79000002
-0.044239998 0.25836763 0.79000002
0.064704768 0.25881907 0.79000002
0.24256982 0.25783786 0.79028577
-0.14401948 0.26472762 0.79494452
-0.13496062 0.26468232 0.79189473
-0.12501621 0.26448664 0.79146361
-0.11496274 0.26484731 0.79174381
-0.10512909 0.26427549 0.79107714
-0.09488599 0.26432738 0.79071462
-0.08498656 0.26453492 0.79102719
-0.075243011 0.2644062 0.79121971
-0.064840734 0.26464689 0.79166675
-0.05490645 0.26551989 0.79294127
-0.045204736 0.26500934 0.79302436
-0.035093572 0.26544386 0.7913751
-0.025146527 0.26589757 0.79214823
-0.01509524 0.26643437 0.79250014
-0.0055158981 0.26620808 0.7926923
0.0042146784 0.26551789 0.79188257
0.015495139 0.26739234 0.79263157
0.025261236 0.2658667 0.79222232
0.034786884 0.26512539 0.79122227
0.044961747 0.26523873 0.79131448
0.055213217 0.26522499 0.79212517
0.064954109 0.26510775 0.79304779
0.075381599 0.26536813 0.79103047
0.085014001 0.26618755 0.79147822
0.095315106 0.26564726 0.792
0.10437968 0.26717085 0.79133332
0.11676857 0.26818666 0.79100007
0.12577376 0.26594383 0.79017401
0.13510422 0.26531324 0.79092872
0.14374526 0.26697287 0.79074997
0.15122858 0.26935238 0.79000002
0.1681 0.26609761 0.79149997
0.17456177 0.2665585 0.79175007
0.18482816 0.26705635 0.79211104
0.19387683 0.26736176 0.79177779
0.20790794 0.26784766 0.79000008
0.2157274 0.26685694 0.79077774
0.2255225 0.26634574 0.79089999
0.23557915 0.26523438 0.7911765
0.24129142 0.26349857 0.79049999
-0.14262789 0.27299154 0.79581827
-0.13461952 0.27485043 0.79545003
-0.12514679 0.27532715 0.79638898
-0.11523758 0.27520573 0.79604757
-0.10492542 0.27526063 0.79569238
-0.095500253 0.27433068 0.79624999
-0.084754184 0.27516618 0.79676932
-0.075080216 0.27528724 0.79627782
-0.065105312 0.27482879 0.79495233
-0.054681905 0.27568436 0.79742879
-0.044770904 0.27546012 0.79677796
-0.034844179 0.27496201 0.79533333
-0.025000425 0.2750181 0.79550004
-0.015171432 0.27537161 0.79652399
-0.005332463 0.2753194 0.7966857
