# .PCD v0.7 - Point Cloud Data file format
VERSION 0.7
FIELDS x y z
SIZE 4 4 4
TYPE F F F
COUNT 1 1 1
WIDTH 1385
HEIGHT 1
VIEWPOINT 0 0 0 1 0 0 0
POINTS 1385
DATA ascii
-0.18918985 0.15806985 0.77800006
-0.22208054 0.16495569 0.77693331
-0.21484369 0.16522433 0.77358705
-0.20487016 0.16507906 0.77379584
-0.19512306 0.16482662 0.77607155
-0.18790555 0.16231796 0.778
-0.22247545 0.17541333 0.77693331
-0.21513546 0.1746475 0.77440017
-0.20654601 0.17476696 0.77670974
-0.19857524 0.17041907 0.77800006
-0.22201455 0.18501316 0.77704769
-0.21570365 0.18399508 0.7775293
-0.20894858 0.18227431 0.77800006
-0.22186235 0.19243595 0.77800006
-0.21679035 0.19443826 0.778
-0.21709904 0.20005715 0.77800006
-0.0025047623 -0.022041906 0.78900003
0.0048761908 -0.022889208 0.7879166
0.0150049 -0.023259047 0.78771424
0.025308909 -0.024034902 0.78705877
0.034327719 -0.022810524 0.7872104
0.04438746 -0.021630321 0.78766674
-0.010820571 -0.012323429 0.78900003
-0.0049969228 -0.014679565 0.78648722
0.0044701644 -0.014916072 0.78287774
0.014515279 -0.01532991 0.78150016
0.025498379 -0.015824806 0.78172529
0.035099868 -0.015501052 0.78189212
0.044713967 -0.014909811 0.78246969
0.054696854 -0.014120147 0.78530788
0.062890857 -0.012008763 0.78800005
-0.012726377 -0.004829648 0.78795642
-0.0052229622 -0.0052208458 0.78300029
0.0038406882 -0.0055776187 0.7807501
0.011514287 -0.0085428581 0.78000003
0.045314282 -0.0089142863 0.78000009
0.056626469 -0.0056907479 0.78157163
0.064761855 -0.0049421648 0.78512138
0.071235426 -0.0027051428 0.78900003
-0.012731641 0.0040596123 0.78796279
-0.0052219941 0.0044725621 0.78257173
0.0010215477 0.0039929762 0.78018749
0.056766134 0.0047375597 0.78040636
0.064864799 0.0044708382 0.78280979
0.071890756 0.0047220006 0.7870999
-0.01186466 0.014633082 0.78899986
-0.0052345125 0.014939955 0.78428596
0.0036155984 0.015794855 0.78067589
0.0104 0.018571429 0.78000003
0.055910785 0.015358972 0.78033358
0.064838044 0.01490485 0.78247643
0.071972467 0.014785238 0.78800005
-0.011020953 0.022793334 0.78900003
-0.0050389944 0.024765978 0.78655559
0.0044685313 0.025346119 0.78267366
0.013523623 0.026474774 0.78054851
0.026397761 0.02832034 0.78011763
0.034917861 0.027488893 0.78008342
0.045027439 0.026430525 0.78024346
0.05506406 0.025300916 0.78128558
0.06483382 0.024876345 0.78559476
0.071235426 0.022242285 0.78900003
-0.1841 0.039074287 0.78900003
-0.003255873 0.032304764 0.78883332
0.004670999 0.034984421 0.78565019
0.014901632 0.035029288 0.78250033
0.025299137 0.034974508 0.78130978
0.034970362 0.034971688 0.78125024
0.044685405 0.035006247 0.78197634
0.054783221 0.03508113 0.78586501
0.062118098 0.032561909 0.78900003
-0.19324918 0.044491939 0.78566664
-0.18494901 0.042107016 0.78450006
-0.17441376 0.043055493 0.78322726
-0.16482706 0.044259015 0.78320932
-0.15596011 0.045386571 0.78383791
-0.14517449 0.048196957 0.78580004
-0.13976572 0.048842859 0.78900003
0.0073426464 0.041723177 0.78855562
0.015766514 0.043290265 0.78712904
0.025132012 0.044047371 0.78684616
0.035025712 0.044780683 0.78728569
0.044384874 0.043661226 0.78722852
0.053068262 0.042053968 0.78850001
-0.16045715 0.050514285 0.78000003
-0.15718858 0.050811429 0.78000003
-0.1342151 0.052898038 0.78492308
-0.12440789 0.054465037 0.78049999
-0.11430135 0.054802004 0.78094751
-0.10684912 0.057302758 0.78310525
-0.096636012 0.059330296 0.78660005
-0.10177143 0.060914289 0.78000003
-0.094472952 0.063569002 0.78393954
-0.085245006 0.064921908 0.78462976
-0.075132042 0.067497283 0.78442872
-0.064280689 0.066362463 0.78777421
-0.057258856 0.067327999 0.78900003
-0.072839193 0.073051028 0.78042871
-0.065348849 0.074474081 0.78204256
-0.055858135 0.075260118 0.78636378
-0.046066884 0.078198642 0.78866655
-0.038322859 0.07965143 0.78900003
-0.07131429 0.088400006 0.78000003
-0.065092713 0.084896207 0.78015232
-0.05512058 0.084922262 0.78218365
-0.044962347 0.085431732 0.78687751
-0.037539136 0.085587934 0.7883333
-0.073420286 0.096318454 0.78013641
-0.065452471 0.095206462 0.78097939
-0.055390865 0.095022462 0.78363657
-0.044981416 0.095213309 0.78719068
-0.037550051 0.095379569 0.78855544
-0.20677906 0.10859619 0.78100002
-0.081862859 0.10414856 0.78000015
-0.074713707 0.10503741 0.78070754
-0.065334067 0.10529977 0.78371823
-0.055270273 0.10506383 0.78653187
-0.045665357 0.10467342 0.78852361
-0.039074287 0.10069143 0.78900003
-0.21069428 0.11580382 0.7845
-0.20668478 0.11509543 0.78119999
-0.10474285 0.11885716 0.78000009
-0.095085725 0.11885716 0.78000009
-0.08406806 0.11859395 0.78181833
-0.074371599 0.11552234 0.78135312
-0.065343611 0.11442347 0.7807917
-0.05516855 0.1148131 0.78283691
-0.045217514 0.11537932 0.78626102
-0.037947148 0.11722286 0.78900003
-0.21029145 0.12900858 0.78300005
-0.20678799 0.12534606 0.78042865
-0.11163648 0.12682682 0.78071433
-0.10511607 0.12488867 0.78179562
-0.095316291 0.12450965 0.78375018
-0.085612535 0.12496292 0.78685009
-0.075054839 0.12384165 0.78807139
-0.065792382 0.12329235 0.78784198
-0.055366807 0.12120245 0.78557152
-0.045361113 0.12185 0.78733337
-0.03757143 0.12098001 0.78900003
-0.20329179 0.13456035 0.78059095
-0.19908573 0.13891429 0.78000003
-0.14361906 0.13940953 0.78000009
-0.13412291 0.136539 0.7802189
-0.12758571 0.13687143 0.77999997
-0.11405729 0.13534565 0.78250015
-0.10470121 0.13527924 0.78677785
-0.09500657 0.13431633 0.78810513
-0.087227225 0.13283105 0.7887646
-0.22422391 0.14868037 0.78793341
-0.21502085 0.14716154 0.7856155
-0.20452756 0.14719293 0.78576928
-0.19605426 0.14630368 0.7843464
-0.18484175 0.14831921 0.78258336
-0.17663644 0.14863479 0.78425008
-0.16194287 0.14708571 0.78000009
-0.15396723 0.14608663 0.7810002
-0.14476874 0.14534734 0.78169256
-0.13528357 0.14536336 0.7833001
-0.12507799 0.14506301 0.78297395
-0.11526334 0.14486386 0.78641468
-0.10743589 0.14372414 0.78857881
-0.22443724 0.15408611 0.78162503
-0.21554777 0.15035185 0.78042865
-0.20433681 0.15068488 0.78045464
-0.19427787 0.15246817 0.78300023
-0.18478675 0.15528505 0.78360885
-0.17613599 0.15650649 0.78588903
-0.16732693 0.1586888 0.78875005
-0.15316318 0.15166032 0.78833342
-0.14452174 0.15188037 0.78663635
-0.13551667 0.15203606 0.78833342
-0.12473714 0.15178859 0.78900009
-0.11572 0.15066144 0.78900003
-0.23205082 0.16903621 0.78766674
-0.22627072 0.16419645 0.78056252
-0.19017144 0.16862857 0.78000003
-0.18373059 0.16589931 0.78016692
-0.17466611 0.16461258 0.78173476
-0.16470425 0.16470444 0.78610188
-0.15534651 0.16601199 0.78799999
-0.14803143 0.16907144 0.78900003
-0.2332183 0.17584658 0.78700012
-0.22719467 0.17546345 0.78150004
-0.20263495 0.17671745 0.77999997
-0.19469903 0.17484845 0.78028601
-0.18441921 0.17475326 0.7808097
-0.17459565 0.17509151 0.78434795
-0.16504577 0.17500961 0.78708905
-0.15519561 0.17433529 0.78842843
-0.14848228 0.17312916 0.78900003
-0.23316783 0.18483686 0.78307998
-0.22740796 0.18470988 0.7800526
-0.21326755 0.18760522 0.78000009
-0.20470552 0.18516134 0.78007722
-0.19487749 0.18464747 0.78137487
-0.1852622 0.18478315 0.78356546
-0.17553352 0.18529214 0.78766668
-0.16651659 0.18415013 0.7889998
-0.15930286 0.18034287 0.78900003
-0.23392896 0.19512737 0.78252953
-0.22592999 0.19546512 0.78018767
-0.21292986 0.19489869 0.78000003
-0.20514528 0.19474182 0.78044897
-0.19505799 0.19490302 0.78185105
-0.18526678 0.19525269 0.7858752
-0.17553611 0.19509688 0.78853184
-0.16858521 0.19607867 0.78899992
-0.23447673 0.20520911 0.78514308
-0.22493458 0.20469092 0.78123701
-0.21518394 0.20453446 0.78086513
-0.20517895 0.20526673 0.78147054
-0.19512337 0.20561256 0.78259182
-0.18510795 0.2053521 0.7865271
-0.17542441 0.20493509 0.78899974
-0.16832003 0.2021343 0.78900003
-0.23429866 0.2147731 0.78849989
-0.22496688 0.21515934 0.78660005
-0.21512136 0.21392927 0.78593349
-0.20449169 0.21456815 0.78244841
-0.19520791 0.21446225 0.78269714
-0.18455234 0.21405391 0.78657901
-0.17599532 0.21388879 0.7889998
-0.22668098 0.22142094 0.78900003
-0.28153527 0.24897334 0.78900003
-0.27476642 0.24773909 0.78826308
-0.2657797 0.24826165 0.7883333
-0.25748953 0.24922381 0.78900003
-0.28192589 0.25460711 0.78881818
-0.27494296 0.25458845 0.78562218
-0.26530346 0.25481164 0.7869184
-0.25521246 0.25521475 0.78787506
-0.24872287 0.25698858 0.78900003
-0.28221974 0.26600945 0.78789997
-0.2749086 0.26517332 0.78652394
-0.26534724 0.26459819 0.78704792
-0.25611827 0.26423636 0.78806257
-0.24897334 0.26199812 0.78900003
-0.28244323 0.27483505 0.78899992
-0.27491799 0.27565196 0.7889998
-0.26665914 0.27358532 0.7889998
-0.28253716 0.28854859 0.78900003
-0.27427143 0.28353906 0.78899986
-0.28234926 0.29136643 0.78900003
-0.2782433 0.29112494 0.78900009
-0.0027314287 -0.030962288 0.79680008
0.0045458507 -0.031835284 0.79580963
0.015320336 -0.031439327 0.79482353
0.025364764 -0.031613808 0.79500014
0.033760004 -0.031102542 0.79650009
-0.013909401 -0.023395946 0.79573917
-0.0057242694 -0.025341082 0.79206902
0.0040133335 -0.027348572 0.79033333
0.015057417 -0.027853608 0.79042858
0.024076192 -0.028289525 0.79000002
0.035520766 -0.027074097 0.79179996
0.044924948 -0.025885107 0.79360014
0.055011313 -0.024406077 0.79600012
0.063515685 -0.022792641 0.79773349
-0.022419637 -0.01354696 0.79692316
-0.01558727 -0.015412897 0.79277295
-0.0085269846 -0.019060317 0.79000008
0.057076193 -0.019109208 0.79200006
0.065877251 -0.016221272 0.79400009
0.073748425 -0.013916031 0.7969169
-0.023499047 -0.0053061908 0.79583347
-0.017842606 -0.0057886718 0.79094732
0.068775877 -0.0085346038 0.79066676
0.075335369 -0.0056034285 0.79466677
0.081320003 -0.0022800001 0.79800004
-0.022867363 0.0043395679 0.79545468
-0.017865282 0.0050656283 0.79054546
0.07675828 0.0043161907 0.79154557
0.082665116 0.0047231046 0.79711133
-0.022685908 0.01494762 0.79660022
-0.01707492 0.015315809 0.79086691
0.076837935 0.015300088 0.7923637
0.083059691 0.015447621 0.79766691
-0.021866668 0.022473907 0.79720008
-0.015663238 0.025146993 0.79251438
-0.0090285717 0.028590476 0.79000002
0.069219045 0.028590476 0.79000002
0.075253852 0.02525308 0.79380012
0.082079999 0.022420002 0.79799998
-0.19316763 0.038632002 0.79540002
-0.18430896 0.038401909 0.79380006
-0.17857239 0.038966671 0.79450005
-0.013442666 0.033904891 0.79573351
-0.0062438091 0.035787717 0.79186225
0.00075238099 0.039123811 0.79000002
0.065703742 0.035484839 0.79312825
0.072600961 0.032760955 0.7968334
-0.20270668 0.046098419 0.79566669
-0.19737229 0.044195376 0.79228568
-0.17423525 0.04073143 0.792
-0.15249461 0.044617146 0.79400009
-0.14726478 0.047660317 0.7943334
-0.01102 0.042180002 0.79800004
-0.00470844 0.044081453 0.79606897
0.0040080543 0.045493875 0.79228586
0.013721904 0.048117258 0.79077774
0.024828574 0.049657144 0.79000008
0.03235238 0.049657144 0.79000002
0.046673749 0.048501775 0.79042858
0.055577993 0.04608677 0.79177785
0.06463293 0.04406694 0.79537153
-0.20165335 0.050792385 0.79600006
-0.19862096 0.051550481 0.79600006
-0.14348635 0.051693335 0.7943334
-0.13907525 0.051635239 0.79150003
-0.10683809 0.054171428 0.79000002
-0.091790482 0.058685716 0.79000008
0.0052169054 0.05171857 0.7971251
0.015550594 0.054372068 0.79484868
0.024967516 0.055241913 0.7944445
0.034764357 0.055177514 0.79352397
0.044826884 0.054933544 0.7955001
0.054526586 0.053077579 0.79718202
0.061560005 0.050160002 0.79800004
-0.084798098 0.062156193 0.79266679
-0.07319238 0.064509049 0.79225004
-0.068617143 0.062899046 0.79000002
-0.052121427 0.068747617 0.79324996
-0.043510005 0.069349997 0.79799998
-0.039140001 0.067640007 0.79800004
0.02812 0.060800005 0.79800004
0.034960002 0.060800008 0.79800004
-0.051789712 0.071963437 0.79040003
-0.044755396 0.07376074 0.79348397
-0.036023118 0.076481953 0.7948966
-0.027083177 0.078467309 0.79733342
-0.032266814 0.084693052 0.79076934
-0.024947302 0.08468391 0.79395258
-0.015946368 0.085976347 0.79742116
-0.0091200005 0.088160001 0.79800004
-0.032380816 0.094888709 0.79071438
-0.025105637 0.094860569 0.79338467
-0.015174423 0.094864681 0.79685724
-0.0079257162 0.094565727 0.7980001
-0.041503131 0.10816707 0.79028577
-0.034640554 0.10512195 0.79336584
-0.024847474 0.10499536 0.7962051
-0.016489303 0.10399293 0.79770613
-0.040628571 0.11210476 0.79000002
-0.034118842 0.11435522 0.79404873
-0.025030298 0.11529554 0.79647619
-0.017674461 0.11633682 0.79745466
-0.082009524 0.12940952 0.79000002
-0.075238101 0.12865716 0.79000008
-0.064204954 0.12758763 0.7913
-0.054961219 0.12631361 0.79360008
-0.044794865 0.12662411 0.7942608
-0.034521442 0.1250218 0.79424256
-0.02511514 0.12407383 0.79503465
-0.015030661 0.12315623 0.79696786
-0.0079377787 0.12261335 0.79799998
-0.09480001 0.13951294 0.79000008
-0.083275244 0.13609827 0.79133344
-0.075204395 0.13507399 0.79333353
-0.064947374 0.13530731 0.79509115
-0.055218257 0.13305312 0.7968967
-0.045122933 0.1316302 0.79784626
-0.22389787 0.14514001 0.79325008
-0.21422423 0.14450639 0.79442871
-0.20721552 0.14479063 0.79184616
-0.17348573 0.14934857 0.79200006
-0.103733 0.1463538 0.79136366
-0.095001183 0.1448385 0.79340541
-0.084813163 0.14464438 0.79514307
-0.076076187 0.1443969 0.79703724
-0.068117462 0.14180762 0.79766673
-0.17280081 0.15315238 0.79349995
-0.16496648 0.15549392 0.79530013
-0.15526699 0.15718113 0.79458845
-0.14615853 0.15720296 0.79611135
-0.13253206 0.15436891 0.7906667
-0.12556572 0.15462756 0.79163641
-0.11402217 0.1546042 0.79290915
-0.10479397 0.15335868 0.79579312
-0.09588632 0.15238075 0.7970528
-0.085436493 0.15112352 0.79769242
-0.078280002 0.15048002 0.79800004
-0.15239143 0.16230731 0.79083335
-0.14479132 0.16438533 0.79272336
-0.13498951 0.16608468 0.79492331
-0.12561762 0.16746998 0.79658353
-0.11856001 0.16872001 0.79800004
-0.15241089 0.17842178 0.79000008
-0.14407547 0.17528073 0.79166692
-0.134776 0.17511249 0.79386961
-0.1243455 0.17484647 0.79590487
-0.11764834 0.1750737 0.79778963
-0.23925714 0.18884763 0.79000002
-0.1631033 0.18685219 0.79061538
-0.15485767 0.1848418 0.79074448
-0.14481314 0.18497491 0.7912448
-0.13494144 0.18492125 0.79624999
-0.12579162 0.18154934 0.79759997
-0.16338217 0.19467106 0.79179507
-0.15498705 0.19508885 0.79305011
-0.14523658 0.19507444 0.79390705
-0.13705632 0.19313906 0.79780972
-0.17079049 0.20765713 0.79000008
-0.16423921 0.20527579 0.79242122
-0.15456878 0.20507136 0.7926501
-0.14600189 0.2038624 0.79537511
-0.13983999 0.20064001 0.79800004
-0.24076191 0.2174381 0.79000002
-0.2372508 0.21793967 0.79000008
-0.21728761 0.21909335 0.79000002
-0.19260953 0.21969526 0.79000008
-0.18388192 0.21939428 0.79000002
-0.17233953 0.21580058 0.79000002
-0.16478895 0.21443166 0.79200017
-0.15518121 0.21457188 0.79282606
-0.14739652 0.2165494 0.79641688
-0.24089146 0.22394896 0.79440004
-0.23491856 0.22501513 0.79282361
-0.22442412 0.22618996 0.79238904
-0.21465544 0.22479981 0.79347378
-0.20464118 0.22554792 0.79322225
-0.19551535 0.22451869 0.79476923
-0.18590635 0.22291493 0.79566669
-0.17338288 0.22108574 0.79500002
-0.16787431 0.22080764 0.79400003
-0.15394357 0.22271167 0.79675019
-0.1449336 0.22190985 0.79760015
-0.24016002 0.2318 0.79800004
-0.23482752 0.23448974 0.79651862
-0.22524732 0.23469761 0.79523534
-0.21533896 0.23359577 0.79664713
-0.20529699 0.23457806 0.79702872
-0.19873999 0.23218 0.79800004
-0.28341869 0.24711736 0.79400009
-0.27514973 0.24498466 0.79371434
-0.26503655 0.24590656 0.79373908
-0.25531194 0.24851134 0.79366672
-0.24852002 0.24928002 0.79800004
-0.22572 0.24016002 0.79800004
-0.20687202 0.24122404 0.79799998
-0.28614923 0.25624347 0.79218191
-0.25095522 0.25057811 0.79250002
-0.24464849 0.2540369 0.79276019
-0.2354784 0.25628987 0.79497433
-0.22543578 0.25734988 0.79638475
-0.21692571 0.25926858 0.79800004
-0.29206979 0.26500714 0.79475009
-0.28722906 0.26412693 0.79168421
-0.25258237 0.26745287 0.79050004
-0.24457301 0.26490551 0.79123098
-0.23530574 0.2646645 0.79367447
-0.2252313 0.26473242 0.79515386
-0.21615669 0.26466998 0.79800022
-0.20900002 0.2622 0.79800004
-0.3003566 0.27608535 0.79640007
-0.29427379 0.27567613 0.7945264
-0.28649271 0.27594465 0.79106665
-0.26324424 0.27640513 0.79052174
-0.25509894 0.27523455 0.79308718
-0.24513766 0.27520254 0.79412502
-0.23509352 0.27488121 0.79565001
-0.22683929 0.27409607 0.79757911
-0.29424426 0.28487563 0.79423088
-0.28580618 0.2848998 0.79102874
-0.27572706 0.28626421 0.79016012
-0.26477724 0.28503686 0.79290915
-0.25493428 0.28529391 0.79475695
-0.24481325 0.28545925 0.79546672
-0.23803478 0.28188524 0.79725003
-0.29393679 0.29469296 0.79485738
-0.28552628 0.29604036 0.79295999
-0.27483302 0.29526398 0.79345459
-0.2650941 0.29463655 0.79528594
-0.25492427 0.29510158 0.79629272
-0.24442242 0.29470089 0.79646522
-0.29380208 0.30381742 0.79656011
-0.28518033 0.30458224 0.79565728
-0.27516603 0.30412215 0.79659462
-0.26482198 0.30399832 0.79720026
-0.2548849 0.30496657 0.79630446
-0.24591078 0.30488181 0.79666668
-0.29184005 0.31008002 0.79800004
-0.28500003 0.31008005 0.79800004
-0.26239356 0.31295848 0.79719996
-0.25496763 0.312931 0.79558337
-0.2465183 0.31285891 0.79645479
-0.073285945 -0.072658367 0.80652952
-0.068957612 -0.072809994 0.80900002
-0.072769806 -0.06605415 0.8047145
-0.06513954 -0.06531626 0.80733323
-0.055842374 -0.064497381 0.8038438
-0.070796192 -0.059252381 0.80800003
-0.063680172 -0.057802074 0.80827284
-0.055226229 -0.057955321 0.80845463
-0.047329254 -0.055034015 0.80900007
-0.043146666 -0.046999048 0.80900002
0.015409524 -0.040064763 0.80900002
0.020802857 -0.040064763 0.80900002
-0.020032382 -0.030819047 0.80900002
-0.013742657 -0.032663658 0.80636853
-0.0057858685 -0.0350051 0.80451614
0.0045988215 -0.036781225 0.80447626
0.015186745 -0.036256604 0.80371994
0.024968758 -0.036459137 0.8041501
0.035379279 -0.035201896 0.80340004
0.04459944 -0.03342963 0.80433333
0.05299259 -0.031623919 0.80766666
-0.030819047 -0.020032382 0.80900002
-0.023754952 -0.024134098 0.80445015
-0.016797496 -0.027162408 0.80157906
-0.009142857 -0.028952381 0.80000001
0.048 -0.028952381 0.80000001
0.054419681 -0.02912127 0.8046667
0.06661588 -0.024505399 0.80400008
0.07195048 -0.022310207 0.80371439
-0.031941634 -0.013830476 0.80671442
-0.026414648 -0.01602857 0.80262071
0.07724905 -0.016711788 0.80206263
0.083587542 -0.01216052 0.80718184
-0.033072785 -0.0050529367 0.80591673
-0.028232381 -0.0053419052 0.80116677
0.079238102 -0.009142857 0.80000001
0.085085243 -0.0055521182 0.80455166
0.091686666 -0.0023114285 0.80900002
-0.033245459 0.0043466035 0.80546671
-0.027549241 0.0048088571 0.8012501
0.087788582 0.0042798729 0.80293345
0.091483347 0.0044900002 0.8083334
-0.031872831 0.014807844 0.80582374
-0.027357148 0.015483894 0.80190921
0.087957785 0.014637303 0.80191678
0.091558255 0.015040147 0.80838472
-0.031160273 0.02391973 0.80642867
-0.025764301 0.025661813 0.80312908
-0.019809525 0.028952381 0.80000001
0.079238102 0.028952381 0.80000001
0.085513674 0.025995646 0.80267853
0.092336126 0.024149744 0.80792314
-0.20036761 0.038238097 0.80300003
-0.1945937 0.03528633 0.80559099
-0.18538398 0.035034291 0.80618185
-0.17515768 0.03780346 0.80568188
-0.1668369 0.038882256 0.80490923
-0.02380095 0.034099441 0.80604172
-0.018002806 0.036648527 0.80163175
0.076648772 0.036008961 0.80210006
0.083954923 0.032966137 0.80705565
-0.1618 0.040064763 0.80900002
-0.15294382 0.043807622 0.8070001
-0.14535023 0.046532385 0.80431265
-0.13590069 0.048170667 0.80713344
-0.021565715 0.043572251 0.80871433
-0.015405987 0.045285068 0.80391425
-0.0078448988 0.047725722 0.80085725
0.067420192 0.048201144 0.80080003
0.074728668 0.045301747 0.80483872
0.080899999 0.040835239 0.80900002
-0.14019047 0.050285712 0.80000001
-0.13425143 0.051222511 0.80600011
-0.10226896 0.05791086 0.80860007
-0.094985656 0.05795927 0.80730784
-0.087481901 0.058834672 0.80860007
-0.012746667 0.051422048 0.80757147
-0.0047703404 0.053640548 0.80535716
0.0039939173 0.056878775 0.80280632
0.013730583 0.05900275 0.80111122
0.048 0.059428573 0.80000001
0.055686779 0.057469632 0.80216676
0.064878099 0.053940892 0.80410731
0.072222866 0.051586669 0.8067143
-0.10478476 0.060097143 0.80900002
-0.084252447 0.061293975 0.80720013
-0.076010562 0.06291914 0.80390912
-0.046262704 0.067280799 0.80283344
-0.037333332 0.068571426 0.80000001
-0.0015409524 0.060097143 0.80900002
0.0066209524 0.062799558 0.80715394
0.015504764 0.064593859 0.80522227
0.024711013 0.064113446 0.80287999
0.035024021 0.064659372 0.80400002
0.045079734 0.063408934 0.80472732
0.053407814 0.06217752 0.80800009
-0.048761904 0.070095234 0.80000001
-0.033457037 0.073458731 0.80255568
-0.025059886 0.075783692 0.80416
-0.0150337 0.077608705 0.80503857
-0.0060724807 0.078139648 0.80773693
-0.012614372 0.082202256 0.80054551
-0.0052012359 0.08506719 0.80218923
0.004114843 0.085060552 0.80485362
0.014483309 0.087615743 0.8070001
0.021573333 0.089375235 0.80900002
-0.003558889 0.095185414 0.80116671
0.0045895046 0.094839737 0.80308181
0.015331706 0.09505222 0.80487776
0.024905138 0.095762014 0.80727762
0.030819049 0.097080007 0.80900002
-0.012293843 0.10709131 0.80013347
-0.0055157519 0.10497085 0.80135888
0.0045948308 0.10486057 0.80366671
0.015125527 0.10502639 0.80610001
0.024625601 0.10484915 0.80799979
0.031589523 0.10247334 0.80900002
-0.013252837 0.11417756 0.80017388
-0.0051694755 0.11495958 0.80225629
0.0046045096 0.1150426 0.80528575
0.014124027 0.11483081 0.80842859
0.022343811 0.11218133 0.80900002
-0.032026667 0.12963176 0.80066669
-0.025142856 0.12876192 0.80000001
-0.014669999 0.12784953 0.80025005
-0.0044597536 0.12470051 0.80055547
0.0045990031 0.12485625 0.80428576
0.014956703 0.12509787 0.8067072
0.023748673 0.12700461 0.80847377
-0.22349314 0.13879117 0.80718189
-0.21641958 0.13799848 0.80620021
-0.05360762 0.13783529 0.80061549
-0.044868656 0.13673407 0.80147827
-0.035205718 0.13548797 0.80371422
-0.025122149 0.1347679 0.80633318
-0.015377643 0.13210386 0.80742115
-0.005163129 0.13182668 0.80742866
0.0041079363 0.13121544 0.8083334
0.015865356 0.13183703 0.80775011
0.023781378 0.13172783 0.8083334
-0.23000002 0.14260001 0.80500007
-0.22517456 0.14247239 0.80247384
-0.21541345 0.14204943 0.80241191
-0.071880735 0.1472809 0.80030781
-0.064543404 0.14621679 0.8014375
-0.055182207 0.14499986 0.80238307
-0.045023218 0.14480831 0.8038919
-0.036319882 0.14464691 0.80758047
-0.027223494 0.1415108 0.80900002
-0.14150858 0.15829238 0.801
-0.13595811 0.15849048 0.80200005
-0.12532094 0.15900335 0.80362511
-0.11757969 0.15880635 0.80166668
-0.10441059 0.15831368 0.80088896
-0.093975447 0.1568525 0.80077785
-0.085067898 0.15608506 0.80057132
-0.074629195 0.15518314 0.80167496
-0.065068051 0.15540686 0.80380559
-0.055104509 0.15494433 0.80667567
-0.045228962 0.15398596 0.80817646
-0.037202995 0.15211402 0.80900007
-0.14081524 0.16064128 0.80066669
-0.13460116 0.16145982 0.80120015
-0.12470294 0.16329876 0.80299997
-0.11479037 0.16529521 0.803532
-0.10508192 0.16545385 0.80637199
-0.09497916 0.16335361 0.80500019
-0.084808789 0.161974 0.80222243
-0.07541132 0.16179599 0.80261123
-0.064254329 0.16278809 0.80826318
-0.056758415 0.16077271 0.80900002
-0.11352912 0.17490667 0.80121738
-0.10532186 0.17475751 0.80293345
-0.095178865 0.17501014 0.80597937
-0.086660236 0.17625561 0.80900002
-0.12472608 0.18632968 0.80099988
-0.11468881 0.18551491 0.80207133
-0.10538044 0.18452626 0.80353653
-0.095299326 0.18522944 0.80700004
-0.08533942 0.18436398 0.80899996
-0.13408668 0.19633624 0.80033338
-0.12527813 0.19479509 0.80209535
-0.11483428 0.19522403 0.80385721
-0.10464291 0.19506346 0.80680948
-0.095351718 0.19348989 0.80892318
-0.087371998 0.19231085 0.80900002
-0.1417435 0.20677368 0.80016679
-0.13454035 0.2052044 0.80134135
-0.1250972 0.20471835 0.80284792
-0.11478033 0.20431255 0.80347627
-0.10539676 0.20506082 0.80797303
-0.14348142 0.21411784 0.80109674
-0.13463292 0.2149117 0.80258161
-0.12487817 0.21538375 0.80527771
-0.11520245 0.21424808 0.8072564
-0.10619495 0.21308601 0.80860007
-0.1924354 0.2279184 0.80000007
-0.18432827 0.22767486 0.80094123
-0.17518754 0.22656205 0.80138475
-0.16494729 0.22619967 0.80182755
-0.15546454 0.22772324 0.80205899
-0.14411631 0.22729522 0.80626321
-0.13543013 0.22366145 0.80629635
-0.124672 0.22202946 0.8087334
-0.11742057 0.22097257 0.80900002
-0.2914443 0.23677287 0.80850005
-0.28619319 0.23849106 0.80780011
-0.27499586 0.23854062 0.80735302
-0.2688244 0.23929678 0.80740005
-0.24262618 0.23650953 0.80237508
-0.23771429 0.23923808 0.80000007
-0.22095238 0.23923808 0.80000001
-0.21561906 0.23923807 0.80000007
-0.20134322 0.23856305 0.80079997
-0.19468689 0.23490089 0.80191886
-0.18490933 0.23462583 0.80278033
-0.17494233 0.23495471 0.80458969
-0.16519827 0.23503652 0.8071211
-0.15573546 0.23411392 0.80676931
-0.14724655 0.23199895 0.80900002
-0.28493947 0.24314491 0.80303591
-0.27512881 0.24226414 0.80246168
-0.26450208 0.24293642 0.80432504
-0.25494909 0.24548323 0.80371791
-0.24515526 0.24593267 0.80463827
-0.23443988 0.24558838 0.80278939
-0.22487417 0.24565604 0.80312902
-0.21525979 0.24486409 0.80328131
-0.20416518 0.2453119 0.80382615
-0.19487959 0.24407059 0.80617648
-0.18518935 0.244379 0.80706662
-0.17546418 0.24332745 0.8083334
-0.16522434 0.24124466 0.80900002
-0.29363334 0.25913337 0.80500007
-0.2419762 0.25088131 0.80150008
-0.23467293 0.25198027 0.80176198
-0.22441998 0.25359613 0.80376464
-0.21495031 0.25491089 0.80477333
-0.20556185 0.25693765 0.80480635
-0.19572952 0.25844702 0.80675018
-0.18953715 0.25887999 0.80900002
-0.29348573 0.26062095 0.80250001
-0.22095238 0.2697143 0.80000001
-0.21253134 0.26610529 0.80000013
-0.20420665 0.26452705 0.8017047
-0.19466215 0.2644302 0.80347836
-0.18563624 0.26547676 0.80674452
-0.17589664 0.26713446 0.80869228
-0.29751432 0.27538955 0.801
-0.22315447 0.27611646 0.80042118
-0.21527788 0.27558941 0.80157143
-0.20480908 0.27511925 0.80242884
-0.19481915 0.27501604 0.80397552
-0.18452616 0.27476972 0.80715376
-0.17600703 0.27396739 0.80892318
-0.16873428 0.27197811 0.80900002
-0.2343398 0.28564805 0.80097127
-0.22493938 0.28511578 0.80210257
-0.21521999 0.28496319 0.80266672
-0.20501634 0.28509501 0.80280489
-0.19602259 0.28482887 0.80803025
-0.18603496 0.28276473 0.80900002
-0.24076191 0.29409525 0.80000001
-0.23498164 0.29504186 0.80176091
-0.22486734 0.29523575 0.80310214
-0.2148039 0.29529795 0.80509758
-0.20481996 0.29527158 0.8068499
-0.19750059 0.29255486 0.80880004
-0.27276191 0.30933338 0.80000007
-0.26681906 0.30735239 0.80000013
-0.25676191 0.3017143 0.80000001
-0.24154732 0.30558825 0.80050009
-0.23548064 0.30504352 0.80241865
-0.22498512 0.30533916 0.80352384
-0.21482229 0.30519545 0.80595648
-0.20528521 0.30534461 0.80724388
-0.29428357 0.31540984 0.80259103
-0.2851485 0.31548271 0.80192846
-0.27547854 0.31521061 0.80308825
-0.26715672 0.31478822 0.80146682
-0.25587779 0.3192724 0.80200005
-0.24303712 0.31633037 0.80080962
-0.23494643 0.31412676 0.80195236
-0.22494721 0.31433335 0.80352497
-0.21488746 0.31491643 0.80544442
-0.20435098 0.31514949 0.80680937
-0.19809799 0.31623766 0.80900002
-0.30118239 0.32442498 0.80675
-0.29538995 0.32496843 0.8071577
-0.28470919 0.32538176 0.80719995
-0.27553332 0.32513472 0.80852926
-0.26481435 0.32506922 0.80766666
-0.25577775 0.32507974 0.80707699
-0.24466641 0.32314289 0.80785728
-0.23517714 0.3212629 0.80700004
-0.22652 0.32128859 0.80900002
-0.21406142 0.32224527 0.80850005
-0.20458123 0.32194161 0.80842865
-0.19878286 0.32128859 0.80900002
-0.28607327 0.33275506 0.80900002
-0.27767962 0.33192116 0.80900002
-0.2630626 0.3326256 0.80900007
-0.06515649 -0.072426088 0.81299996
-0.057156198 -0.071059063 0.81100005
-0.064107627 -0.069514289 0.81100005
-0.062305406 -0.053036831 0.81100005
-0.054684568 -0.052830853 0.81099999
-0.047466323 -0.052802775 0.81099999
-0.063437574 -0.043708771 0.81362081
-0.054921314 -0.044859692 0.81219065
-0.047064688 -0.044141587 0.81159276
-0.012869661 -0.041042455 0.8152858
-0.0047286665 -0.042365905 0.81459999
0.0046609524 -0.043519992 0.81585735
0.014746927 -0.043466847 0.81490934
0.024693333 -0.044541351 0.81556416
0.034246717 -0.042696781 0.81719053
0.045655355 -0.041569885 0.81775022
0.052003432 -0.041726481 0.8174001
-0.064156264 -0.035807621 0.81741387
-0.055205401 -0.034985501 0.81638885
-0.045750953 -0.034601647 0.81655556
-0.023649268 -0.033456285 0.81518185
-0.015668571 -0.036980841 0.8128823
0.035529528 -0.038619049 0.81100005
0.04611256 -0.037960175 0.8119092
0.055353731 -0.035522703 0.81375015
0.064190924 -0.032829136 0.81841201
0.070200011 -0.032760002 0.81900012
-0.061620004 -0.026520001 0.81900012
-0.055308718 -0.024926173 0.81790483
-0.045165364 -0.024921672 0.81769395
-0.034881435 -0.023588708 0.81771445
-0.027528811 -0.027043695 0.81412506
0.065468714 -0.028246397 0.81414282
0.074801654 -0.02590373 0.81736374
0.082952119 -0.020906124 0.81728578
-0.055197392 -0.014910965 0.81791431
-0.045103222 -0.014775291 0.81647623
-0.036546759 -0.015212469 0.81327277
0.085811518 -0.015603466 0.81172723
-0.054210007 -0.0081900014 0.81900018
-0.044805434 -0.0057038837 0.81679487
-0.037733816 -0.00605381 0.81133336
0.089596197 -0.0077238097 0.81100005
0.09125334 -0.0069599999 0.81200004
-0.042297546 0.0032800001 0.81763184
-0.038030006 0.0052893655 0.81216669
0.096586451 0.0051400731 0.81630778
0.10140001 0.0093600005 0.81900007
-0.040560007 0.014820001 0.81900012
-0.036764994 0.015057961 0.81385726
0.096331857 0.014388678 0.81422222
0.10140001 0.01092 0.81900007
-0.19546382 0.029591747 0.81766671
-0.18845145 0.029591747 0.81766671
-0.041218173 0.02527927 0.81776947
-0.035810571 0.025235152 0.81409091
0.094883971 0.024574362 0.81453854
-0.21060002 0.037440002 0.81900012
-0.20500185 0.034653556 0.81700015
-0.19552782 0.031641055 0.81255561
-0.18397811 0.031950478 0.81166667
-0.17498288 0.0336974 0.81153333
-0.16550641 0.036357995 0.81400007
-0.15814382 0.038952384 0.81800002
-0.041808005 0.031824004 0.81900007
-0.034239653 0.033602513 0.81700009
-0.02811458 0.036095388 0.81300002
0.087062754 0.036300171 0.81194115
0.092311166 0.034165852 0.81257159
-0.21060002 0.042120006 0.81900012
-0.20761216 0.041912623 0.81875008
-0.16065525 0.040163811 0.81100005
-0.15735008 0.041279785 0.81611115
-0.14330737 0.045377623 0.81450003
-0.13471767 0.046049736 0.815
-0.1277204 0.048673909 0.81380004
-0.025657089 0.045321736 0.81536382
0.078782864 0.049432382 0.81100005
0.084141284 0.044681717 0.81546682
0.090259053 0.040460952 0.81700003
-0.13207716 0.054066669 0.81100005
-0.12580885 0.052513611 0.81370592
-0.11595049 0.053620763 0.8160001
-0.10509668 0.0546179 0.81185734
-0.095571555 0.054532662 0.81394118
-0.085022867 0.057199862 0.81161529
-0.078042291 0.05845486 0.81620008
-0.022317534 0.054230254 0.81617659
-0.015174777 0.055780884 0.81341392
-0.0075335717 0.05775357 0.81125003
0.067768574 0.058234289 0.81166667
0.075199425 0.055447768 0.81207699
0.081300005 0.051877145 0.81300002
-0.080327623 0.060245715 0.81100005
-0.076775566 0.061269522 0.81433338
-0.062139332 0.063691169 0.81557149
-0.054755427 0.066101715 0.81660002
-0.049920004 0.065520003 0.81900007
-0.033099599 0.06931103 0.8164286
-0.028789526 0.069248579 0.81700003
-0.01246422 0.061645988 0.81785721
-0.0049758297 0.063919544 0.81431031
0.003963124 0.066542476 0.81316
0.013290286 0.069239616 0.81140006
0.02566362 0.069102287 0.81160003
0.034537781 0.069075562 0.81188887
0.044612978 0.068418697 0.81287491
0.055671234 0.065596581 0.81410009
0.064034291 0.061858669 0.81593347
0.070604444 0.061260954 0.81766671
-0.033294283 0.071234293 0.81300002
-0.02381943 0.072847061 0.8120001
-0.01499927 0.073678985 0.81238467
-0.0040283813 0.073822848 0.8143
0.0044071428 0.076131903 0.81575024
0.015135941 0.074709289 0.81615812
0.02413515 0.073521733 0.81623822
0.035397463 0.073131122 0.81588906
0.044575393 0.073343493 0.81633353
0.052260004 0.070200004 0.81900007
0.0071635717 0.081299059 0.81300002
0.015048018 0.082985163 0.81375003
0.024831239 0.085344546 0.81473351
0.034238614 0.087112993 0.81561553
0.043082621 0.088307865 0.81875008
0.028114667 0.09175887 0.81100005
0.035243645 0.09471941 0.81170607
0.044836678 0.094879515 0.81521279
0.054735851 0.0970608 0.81820005
0.028026396 0.1085747 0.81100005
0.035526898 0.10571316 0.81194139
0.044953104 0.10462817 0.81376189
0.055240959 0.10502806 0.81688893
0.061464008 0.10592401 0.81900018
0.018537145 0.11740191 0.81100005
0.025461724 0.11599588 0.81162518
0.034862012 0.11542623 0.81338888
0.045100793 0.1147766 0.81643498
0.055148982 0.11495703 0.81557149
0.061230008 0.11388001 0.81900012
0.018537143 0.12126381 0.81100005
0.025878238 0.12325807 0.81151873
0.034719717 0.12529647 0.81365007
0.045180824 0.12504236 0.81788892
0.054687809 0.12530722 0.81803226
0.060840003 0.12012 0.81900007
-0.23206548 0.13791311 0.81700003
-0.22505733 0.13530041 0.81533355
-0.21935621 0.13516667 0.81100005
-0.020081906 0.13825619 0.81100005
-0.014473383 0.13733923 0.81110519
-0.0055535072 0.13710824 0.81209081
0.0046445853 0.1357816 0.81277794
0.014491766 0.13642724 0.81335312
0.025905525 0.1357726 0.81459999
0.035011552 0.1343455 0.81243747
0.044749741 0.13388222 0.81438476
0.054932065 0.13368981 0.81788898
-0.23119938 0.14108828 0.81100005
-0.03226836 0.1476106 0.81099999
-0.024053616 0.14524415 0.81170613
-0.014734181 0.14504243 0.81438881
-0.0054392596 0.14537071 0.81622219
0.0042112744 0.14393231 0.8179729
0.013583131 0.14172587 0.81828582
0.037440002 0.14040002 0.81900012
-0.042300239 0.15838715 0.81125003
-0.034295026 0.15571903 0.81300008
-0.024831928 0.1544393 0.81485707
-0.014797883 0.15502222 0.81794459
-0.0066654547 0.15231274 0.81900018
-0.10118192 0.16683429 0.81100005
-0.094750874 0.16724649 0.81149989
-0.08647576 0.1687776 0.81638473
-0.073828578 0.16708858 0.81600004
-0.067896515 0.16741651 0.81633341
-0.054112922 0.16464201 0.81395239
-0.04505736 0.16470881 0.81574297
-0.034901015 0.16458671 0.81781268
-0.026389159 0.16355933 0.81869245
-0.016380001 0.16068001 0.81900007
-0.08339566 0.17325433 0.8134138
-0.075235046 0.17504586 0.81460029
-0.065585144 0.1760972 0.81716669
-0.056978021 0.17777263 0.81869245
-0.081100002 0.18768859 0.81100005
-0.07496085 0.1847018 0.81144476
-0.065006636 0.18486497 0.81470221
-0.055467021 0.18497829 0.81766665
-0.048067503 0.18593253 0.81900018
-0.094090052 0.19843169 0.81099999
-0.084181644 0.1956307 0.81160629
-0.074774481 0.1950662 0.81535006
-0.064916387 0.19529277 0.8176316
-0.055860534 0.19404088 0.81885207
-0.049400002 0.19084001 0.81900012
-0.10098881 0.20487405 0.81099999
-0.0947593 0.20493783 0.8113687
-0.085173495 0.20483376 0.81500024
-0.074771807 0.20485471 0.81785721
-0.067080006 0.20436002 0.81900018
-0.11122286 0.21935621 0.81100005
-0.10359869 0.21687438 0.811261
-0.094563536 0.21471958 0.81390494
-0.084592469 0.21483031 0.81639999
-0.075010017 0.21492398 0.8182767
-0.068250008 0.21177001 0.81900007
-0.13310699 0.22810987 0.81100005
-0.12485617 0.22693393 0.81143481
-0.114765 0.22554407 0.81209683
-0.10533082 0.22481333 0.81429416
-0.09489698 0.22480722 0.81676215
-0.085341185 0.22386096 0.81820011
-0.07831201 0.22214404 0.81900007
-0.29217377 0.23677421 0.81544453
-0.28518721 0.23634045 0.81544453
-0.27546221 0.23623398 0.81526113
-0.26526433 0.23846124 0.81463641
-0.25606525 0.23897097 0.81600004
-0.24910161 0.23874351 0.81566668
-0.15381415 0.23811404 0.81100005
-0.14453863 0.23584598 0.81192315
-0.13482532 0.23479271 0.81361902
-0.12498477 0.23519364 0.81585723
-0.11551322 0.23408867 0.81788903
-0.10553934 0.23170991 0.81853861
-0.097305 0.23146503 0.81900012
-0.29417619 0.24061906 0.81500006
-0.26061237 0.24050573 0.81200004
-0.25489128 0.24136591 0.81372732
-0.24891114 0.2411797 0.81166673
-0.20081906 0.2487067 0.81100005
-0.18150952 0.2487067 0.81100005
-0.17391181 0.24827281 0.81160003
-0.16556174 0.24544741 0.81207162
-0.15478867 0.24459603 0.81394756
-0.14473905 0.24513178 0.81709528
-0.13534954 0.24407288 0.81833351
-0.12489924 0.24257043 0.81872743
-0.11856001 0.24102001 0.81900007
-0.21008763 0.25334099 0.81100005
-0.20449144 0.25400454 0.81333351
-0.19452788 0.25411764 0.81205291
-0.18475355 0.25554618 0.81375575
-0.17562915 0.25554898 0.81730312
-0.16450875 0.25176308 0.81800008
-0.1547811 0.25192329 0.81785733
-0.1459059 0.25244474 0.81900018
-0.18289632 0.26120701 0.8114444
-0.17396092 0.26219392 0.81312901
-0.16537976 0.26533434 0.81348896
-0.15577281 0.26750097 0.81550014
-0.14599417 0.26832464 0.81812513
-0.17315377 0.27791673 0.81099999
-0.16515812 0.27477482 0.81109792
-0.15494266 0.27471974 0.81385732
-0.14469041 0.27452734 0.81620938
-0.13566624 0.27579731 0.81900018
-0.19232288 0.2880981 0.81099999
-0.18348344 0.28655332 0.81099993
-0.17521556 0.28498706 0.81166679
-0.16481709 0.28480494 0.8139745
-0.15531275 0.28456402 0.81672966
-0.14491974 0.28438941 0.81810009
-0.1365459 0.28309417 0.81900018
-0.20081906 0.29968384 0.81100005
-0.19379106 0.29577428 0.81122249
-0.18470757 0.29507229 0.81273675
-0.17524664 0.29475182 0.81529999
-0.16502103 0.29501981 0.81733334
-0.15598613 0.29414603 0.81892884
-0.14820002 0.29109606 0.81900007
-0.20081906 0.30509052 0.81100005
-0.19489779 0.30489144 0.81160021
-0.18492617 0.3049567 0.81428206
-0.17508665 0.30470207 0.81616265
-0.16527753 0.30471483 0.81860018
-0.15696004 0.303 0.81900018
-0.20081906 0.31126952 0.81100005
-0.19451144 0.31461826 0.81444466
-0.18523718 0.31531796 0.81773168
-0.17512205 0.31443903 0.81845462
-0.16672502 0.31141505 0.81900012
-0.27110571 0.3290343 0.81100005
-0.26878861 0.32826191 0.81100005
-0.25187573 0.32809621 0.81250006
-0.24514261 0.32815716 0.81457144
-0.23537531 0.3270171 0.81540012
-0.22507824 0.32636026 0.815889
-0.21462755 0.32773569 0.8151539
-0.20554166 0.32639101 0.81245452
-0.19540463 0.32270628 0.81625015
-0.18720001 0.32136005 0.81900012
-0.26520139 0.33608362 0.81258637
-0.25512123 0.33506688 0.8151083
-0.2454206 0.33455551 0.81816143
-0.23508003 0.33228007 0.81900018
-0.22620003 0.33072004 0.81900012
-0.21484061 0.33227518 0.81869251
-0.20748001 0.33150005 0.81900007
0.038949847 -0.060530163 0.82900012
0.043593097 -0.060953576 0.82850003
0.0082614291 -0.05074143 0.82600003
0.013878731 -0.051345717 0.82516664
0.03759842 -0.053639375 0.82822233
0.044961963 -0.054619759 0.82673675
0.050547626 -0.052904766 0.82499999
-0.022738878 -0.042181298 0.82572734
-0.01638177 -0.043540679 0.82471436
-0.0066230693 -0.045983918 0.82300007
0.0046936059 -0.048494972 0.82128578
0.014552571 -0.047888007 0.82160008
0.037018761 -0.046790328 0.82300007
0.044518016 -0.046360575 0.82317394
0.053037334 -0.044722475 0.82380003
-0.064116195 -0.031276189 0.82100004
-0.033824857 -0.033991337 0.82409996
-0.026573015 -0.037112173 0.82322216
0.057860956 -0.039095245 0.82100004
0.065171607 -0.036141645 0.82172734
0.072456516 -0.031797461 0.82100004
-0.063177139 -0.024110183 0.82284623
-0.035847329 -0.028268866 0.82100004
0.077669203 -0.027887939 0.82100004
0.082916193 -0.024249209 0.82133341
-0.061611429 -0.018274922 0.82233334
-0.059424765 -0.010946667 0.82100004
-0.053588703 -0.0033406988 0.82260001
-0.0484781 -0.0015638096 0.82100004
-0.053501423 0.004295297 0.82609087
-0.046422441 0.0058645136 0.82308698
0.098520003 0.0031276192 0.82100004
0.10174781 0.0050106668 0.82180005
-0.051152389 0.013297687 0.82814294
-0.045617025 0.014944064 0.82573348
-0.20257597 0.02829 0.82525003
-0.19487585 0.027004372 0.82547057
-0.18473619 0.028669529 0.82642871
-0.17789334 0.029516669 0.8265
-0.045156371 0.022147361 0.8251819
-0.2126781 0.038313337 0.82100004
-0.18106002 0.031352382 0.82300001
-0.17667429 0.031409528 0.82450002
-0.16274144 0.035376668 0.82550001
-0.15496615 0.038097013 0.82600009
-0.14764096 0.039476193 0.82900006
-0.040659048 0.034403808 0.82100004
-0.036525715 0.037532385 0.82342857
-0.2126781 0.041440956 0.82100004
-0.15216072 0.041712146 0.82250005
-0.1448804 0.042372033 0.82394731
-0.13547301 0.045154925 0.82700002
-0.12444819 0.046943307 0.82641172
-0.11797302 0.048346035 0.8276667
-0.033727702 0.044304021 0.8243044
-0.029215239 0.047996193 0.82166672
0.086898096 0.048537146 0.82200003
-0.12184267 0.050740577 0.8222
-0.11542967 0.051436875 0.82371438
-0.10816571 0.05173143 0.82300007
-0.096174285 0.051605716 0.82100004
-0.085062861 0.056708574 0.82700002
-0.032029845 0.050932698 0.82700002
-0.026041523 0.05410419 0.82340002
0.087002859 0.050163809 0.82300001
-0.06443619 0.063382223 0.82499999
-0.054861333 0.063174285 0.82300007
-0.04580123 0.065720282 0.82714301
-0.025081903 0.06897524 0.82300007
-0.014464898 0.064503267 0.82442862
-0.0082452381 0.067531437 0.82449996
0.058715239 0.068891428 0.82200003
0.065418236 0.066986211 0.8232857
0.070542865 0.065842547 0.82300007
-0.024260476 0.071217626 0.82174999
-0.0046914285 0.071935244 0.82100004
0.0045492649 0.074004605 0.82109088
0.014443808 0.076637655 0.82111776
0.02578195 0.077788658 0.82147616
0.034261335 0.077926092 0.82260001
0.0424654 0.078634925 0.82566679
0.056313019 0.07219366 0.8227334
0.06425225 0.072224632 0.82557136
0.028930478 0.081318095 0.82100004
0.036472701 0.08242657 0.8225556
0.044415243 0.084997609 0.82508701
0.05405153 0.087956391 0.82610005
0.064467184 0.088760898 0.82820022
0.071057148 0.088426672 0.82900006
0.055765308 0.092417248 0.82163161
0.06505058 0.094824232 0.82288891
0.074261434 0.095155098 0.82597148
0.083541557 0.097841211 0.82850021
0.065924346 0.10433541 0.82099968
0.074326433 0.10485186 0.82251209
0.084957898 0.10486128 0.82709736
0.094138548 0.10611974 0.82872748
0.065926947 0.11520465 0.82128549
0.074733689 0.11532439 0.82478386
0.084680133 0.1143579 0.82728559
0.095188245 0.11458308 0.82852662
0.10241254 0.11538328 0.82900023
0.059482664 0.12679124 0.82180005
0.0653878 0.1251567 0.82574284
0.074920513 0.12539345 0.82805562
0.083944201 0.12413353 0.82900035
0.095767088 0.12397657 0.82900041
0.10235947 0.1239088 0.82900023
-0.23334248 0.13441181 0.82440013
-0.22708479 0.13243215 0.82650006
0.025020953 0.13917905 0.82100004
0.047696196 0.13917905 0.82100004
0.056041528 0.13868915 0.82180005
0.065101542 0.13490506 0.82357138
0.074498743 0.1348355 0.82535905
0.08376132 0.13565457 0.82900035
0.094216518 0.1347454 0.82900012
0.10105906 0.13106096 0.82900006
0.0081318095 0.14793639 0.82100004
0.015657315 0.14637969 0.82190907
0.025118822 0.14521101 0.82414293
0.034931809 0.14553775 0.82599986
0.044992879 0.1455587 0.82677138
0.053400643 0.14445925 0.82658339
0.064442724 0.14147757 0.82528579
0.073996194 0.14089715 0.82650006
0.08724238 0.14093001 0.82900006
0.09205848 0.14306173 0.82900012
-0.0049430099 0.15694337 0.82131988
0.0048160739 0.1543995 0.82241458
0.014942437 0.15490426 0.82561111
0.02472912 0.155136 0.82773691
0.034912314 0.15336826 0.82876951
0.04472037 0.15505479 0.82783341
0.050845336 0.15316764 0.82900012
-0.074218236 0.16856165 0.82157153
-0.063897148 0.16918795 0.82500005
-0.056297146 0.16889144 0.82100004
-0.032840002 0.16889144 0.82100004
-0.022684524 0.16662264 0.82137507
-0.014663958 0.16525641 0.82384634
-0.0055019055 0.16511138 0.82553327
0.0044844449 0.16430284 0.82694882
0.014767481 0.16389786 0.82850015
0.024317337 0.16106287 0.82900012
0.044213332 0.1626419 0.82900023
-0.072853342 0.17096135 0.82128578
-0.063536748 0.17135145 0.82371438
-0.054148424 0.17443606 0.82364863
-0.044987362 0.17534497 0.82477784
-0.036419682 0.17336866 0.82322228
-0.025129527 0.17187381 0.82466674
-0.015378335 0.17173837 0.82812518
-0.0061582862 0.17116876 0.82900012
-0.050041907 0.18140192 0.82100004
-0.04347359 0.18417676 0.82199985
-0.035464391 0.18492541 0.82495254
-0.027583601 0.18635218 0.8275556
-0.052054726 0.19727014 0.82136375
-0.044523373 0.19510707 0.8222571
-0.035078499 0.19512738 0.82505423
-0.027641607 0.19416894 0.82805264
-0.063028954 0.2062916 0.82110006
-0.054755766 0.20469753 0.82309759
-0.044763178 0.20497639 0.82461131
-0.035526458 0.2042492 0.82736373
-0.070371434 0.21893333 0.82100004
-0.064486377 0.21546505 0.82137477
-0.054952655 0.21432681 0.82433355
-0.044843819 0.21479025 0.82611114
-0.037053339 0.21481593 0.82852018
-0.084793232 0.22883746 0.82100004
-0.074507393 0.2259046 0.82267737
-0.065150693 0.22528964 0.82422233
-0.055220105 0.22473659 0.82580847
-0.045080919 0.22383761 0.8279655
-0.03857388 0.22264576 0.82900012
-0.29426059 0.23367594 0.82474995
-0.28443924 0.23168653 0.82466662
-0.27479467 0.23322362 0.82499999
-0.26537713 0.23631425 0.82620007
-0.25606275 0.23830186 0.82499993
-0.24985714 0.23885716 0.82500005
-0.11282357 0.23835833 0.82125002
-0.10509053 0.23686334 0.82186949
-0.09434747 0.23587143 0.82324994
-0.084800586 0.23511913 0.824889
-0.074809968 0.23467623 0.82686687
-0.065387897 0.2345438 0.82755196
-0.056630246 0.23244479 0.82875001
-0.13318445 0.24812445 0.82100004
-0.12450935 0.24764246 0.8219412
-0.1146785 0.24554035 0.82383335
-0.10467107 0.24497534 0.82654291
-0.095641717 0.24430023 0.82782763
-0.085472174 0.24222408 0.82829434
-0.078952387 0.24080478 0.82900006
-0.17149776 0.25828922 0.82100004
-0.16507393 0.25730386 0.82254541
-0.1550681 0.25740474 0.82337499
-0.14411944 0.25742391 0.82347059
-0.13488097 0.25499514 0.82412177
-0.12493819 0.2551719 0.82554531
-0.11475872 0.25499472 0.82674992
-0.10563728 0.25332829 0.82830441
-0.16339679 0.26191074 0.82337499
-0.15462528 0.26358134 0.8238669
-0.14435825 0.26443475 0.82448727
-0.13530585 0.2660149 0.8265264
-0.12543856 0.26547194 0.82837522
-0.11474413 0.26054287 0.82900012
-0.13302401 0.2722384 0.82260001
-0.12514737 0.27497652 0.82475019
-0.11568429 0.27539423 0.82690012
-0.10753316 0.27759656 0.82900012
-0.14074287 0.28930476 0.82100004
-0.13338529 0.28645188 0.82131582
-0.12508702 0.28484249 0.82415795
-0.11496197 0.28473875 0.82653481
-0.10734347 0.28418276 0.82800007
-0.15247142 0.29712385 0.82100004
-0.14495486 0.2949264 0.82213324
-0.13474771 0.29461846 0.82407701
-0.12508123 0.29503039 0.82677138
-0.11600199 0.29309091 0.82833344
-0.16107239 0.3096343 0.82100004
-0.15383685 0.30562785 0.82182741
-0.14528127 0.3047013 0.82457918
-0.13532734 0.30449396 0.82614303
-0.12612231 0.30432114 0.8284288
-0.1723489 0.31862542 0.82133341
-0.16462617 0.31612486 0.82223064
-0.15499933 0.31487775 0.82394761
-0.14474186 0.31477955 0.82600003
-0.13490459 0.31384689 0.82758057
-0.12795225 0.31356966 0.82853854
-0.19386761 0.32661375 0.82279998
-0.18468849 0.32550937 0.82258332
-0.17478298 0.32523951 0.82437503
-0.16491872 0.32459769 0.82603037
-0.15497011 0.32457882 0.82693541
-0.14584446 0.32348734 0.82796001
-0.13895619 0.32133621 0.82900006
-0.24207774 0.33872116 0.82100004
-0.23431139 0.33678523 0.82170594
-0.22526123 0.3355183 0.82244819
-0.21528384 0.33709532 0.82111776
-0.20435703 0.33562833 0.82531244
-0.19480391 0.33452365 0.82700002
-0.18489802 0.33402991 0.82693541
-0.17551136 0.3329699 0.82733333
-0.16527365 0.33081055 0.82900012
-0.15685208 0.33002099 0.82900012
-0.21463598 0.34420148 0.82513332
-0.20562555 0.34317413 0.82811999
-0.1981705 0.34186381 0.82900006
-0.011120001 -0.051629528 0.83400005
-0.0071500004 -0.051644765 0.83425009
-0.030267304 -0.043015242 0.83633339
-0.025708193 -0.044108957 0.833
-0.012469285 -0.047302142 0.83125001
-0.0083157141 -0.048702382 0.83150005
0.11609938 -0.042231865 0.83809102
0.12493021 -0.043189615 0.83700007
0.13073143 -0.041451432 0.83700001
-0.031657144 -0.039571431 0.83100003
0.097483821 -0.035477716 0.83900017
0.10467818 -0.034741681 0.83689743
0.11452027 -0.035484198 0.83660001
0.12417174 -0.036500875 0.83748001
0.1317381 -0.038322546 0.83833337
0.088466682 -0.024371641 0.83433342
0.09488868 -0.024223214 0.83724988
0.10255077 -0.025806116 0.83573687
0.095747426 -0.015530953 0.83628565
0.10120866 -0.015078096 0.83736372
0.097391434 -0.0059792851 0.83649993
0.10186999 -0.0049997466 0.83739996
-0.21094859 0.028765716 0.83900005
-0.20533316 0.02608305 0.83500004
-0.19493717 0.023815535 0.83361548
-0.18461092 0.025247619 0.83433336
-0.17507014 0.026480414 0.83491302
-0.16753207 0.028720003 0.83766669
-0.21044572 0.030291429 0.83700001
-0.1729718 0.031520959 0.83160001
-0.16662581 0.031968005 0.8336668
-0.15413128 0.035851277 0.83350003
-0.14540933 0.037647724 0.83457905
-0.14109239 0.041451432 0.83700001
-0.13457352 0.043093529 0.83636838
-0.12658477 0.043681532 0.83700007
-0.11410286 0.047614101 0.83513343
-0.10506858 0.049228303 0.83757144
-0.11080001 0.050651431 0.83100003
-0.10418561 0.051126353 0.833
-0.09242525 0.053148579 0.83300006
