# .PCD v0.7 - Point Cloud Data file format
VERSION 0.7
FIELDS x y z
SIZE 4 4 4
TYPE F F F
COUNT 1 1 1
WIDTH 1401
HEIGHT 1
VIEWPOINT 0 0 0 1 0 0 0
POINTS 1401
DATA ascii
-0.075240955 0.09463495 0.55712879
-0.062941618 0.095112979 0.55830234
-0.055981658 0.094939567 0.55764592
-0.045682136 0.095540367 0.55809993
-0.035603929 0.096008763 0.55825806
-0.060995135 0.10264001 0.55744451
-0.058999624 0.10303754 0.55710012
-0.10469144 0.12913716 0.55800003
-0.10469144 0.13126287 0.55800003
0.082911432 -0.030346667 0.56900001
0.059248261 -0.021856826 0.56900001
0.065461114 -0.023849849 0.56868362
0.074769862 -0.024546109 0.56793541
0.084871843 -0.024790322 0.56812829
0.09432888 -0.02412943 0.56814784
0.10272107 -0.021074073 0.56900007
0.059176005 -0.014631428 0.56900007
0.065005288 -0.014985683 0.56661212
0.075182483 -0.015226335 0.5662213
0.085209906 -0.015101892 0.56625938
0.095039383 -0.015118918 0.56698805
0.10217834 -0.01497642 0.56858629
0.057983816 -0.0056899996 0.56900018
0.06507878 -0.0056159119 0.56796378
0.075156376 -0.0052802195 0.56646019
0.08520139 -0.0053935586 0.56619793
0.095177904 -0.0054098764 0.56781524
0.10297579 -0.0061893882 0.56864309
0.06455946 0.0022680401 0.56886065
0.07510943 0.0044214181 0.56808573
0.084675737 0.0036965839 0.5680936
0.09365207 0.0021332756 0.56830311
0.10079429 0 0.56900001
0.076408572 0.010838095 0.56900001
-0.12198405 0.059163813 0.56862503
-0.11405238 0.057724424 0.56802946
-0.10522717 0.057790887 0.56768423
-0.094915316 0.05745763 0.56764293
-0.085837185 0.057592567 0.56810033
-0.074947625 0.058703482 0.56854182
-0.066909991 0.059325479 0.56887501
-0.12373809 0.065078162 0.56717253
-0.11516419 0.06519556 0.56529212
-0.10493461 0.065111548 0.56503963
-0.09473443 0.065128565 0.56517732
-0.085067406 0.065144166 0.56532222
-0.075127095 0.065084852 0.56598985
-0.064963117 0.065405831 0.56643617
-0.055222917 0.065599427 0.56713533
-0.045232531 0.066447809 0.56808227
-0.034720175 0.067057408 0.56844461
-0.028991904 0.068550952 0.56900001
-0.13005716 0.07640858 0.56900001
-0.12462161 0.075194098 0.56724352
-0.11512601 0.075315125 0.56486392
-0.10477982 0.07522811 0.56421077
-0.094704725 0.075333364 0.5649997
-0.085019067 0.075333335 0.5649997
-0.075333335 0.075333349 0.5649997
-0.065140009 0.075371392 0.56527764
-0.054920092 0.075166084 0.56651747
-0.045048147 0.074897245 0.56710577
-0.034752421 0.074693576 0.56802452
-0.028829338 0.074927367 0.56900012
-0.13005714 0.084537148 0.56900007
-0.12488403 0.085210696 0.56724352
-0.11510912 0.084985554 0.56477749
-0.10499955 0.08491879 0.56409144
-0.094819285 0.085101657 0.56457436
-0.084874295 0.085245252 0.56445324
-0.0754136 0.085136913 0.5649274
-0.065174818 0.085060127 0.56451088
-0.055182312 0.085286975 0.56541896
-0.044749495 0.085247308 0.56767786
-0.034615278 0.084915638 0.56791157
-0.025747079 0.086995542 0.56900018
-0.015848493 0.08599405 0.56900012
-0.0046061906 0.089685246 0.56900012
0.0013005715 0.088547245 0.56900007
-0.12461216 0.094982103 0.56741202
-0.11515989 0.094710335 0.56502455
-0.10845334 0.093064003 0.5637334
-0.09628991 0.09210705 0.56420004
-0.081405081 0.099613339 0.56233335
-0.074569933 0.092835739 0.56289661
-0.067047566 0.093972333 0.56126195
-0.05258476 0.092540339 0.56203997
-0.044168904 0.093052201 0.56506532
-0.034739643 0.092906706 0.5639376
-0.025008531 0.09473709 0.56296879
-0.014961055 0.094729021 0.56444591
-0.0053766784 0.095161527 0.56458902
0.0046958607 0.095403202 0.56451601
0.014479567 0.096848957 0.56509435
0.024786776 0.09657988 0.56481141
0.03473245 0.096904419 0.56416065
0.045330215 0.09682487 0.56576604
0.054858197 0.097279176 0.56657141
0.065262802 0.097745605 0.56738901
0.074177273 0.098005392 0.56703228
0.08503779 0.098370604 0.56812906
0.094686717 0.098961398 0.56863165
0.10079429 0.099710472 0.56900001
0.1148608 0.096464537 0.56817335
0.12301238 0.099710472 0.56900001
-0.12395366 0.10456915 0.56753576
-0.11533942 0.1050979 0.56591177
-0.10507929 0.10522201 0.56579578
-0.094914757 0.10515983 0.56625611
-0.085386872 0.10512833 0.56606448
-0.074750192 0.10498825 0.5655117
-0.065890975 0.1054839 0.565
-0.05408952 0.10498568 0.56831175
-0.044910379 0.1049688 0.56813383
-0.035689287 0.10361136 0.56851083
-0.02167619 0.10187809 0.56900001
-0.015289525 0.10095403 0.56728578
-0.0061594569 0.10116191 0.56500006
0.0051109525 0.10098285 0.56400001
0.016083587 0.10118344 0.5651176
0.025142096 0.10160824 0.56699997
0.035438813 0.10100502 0.56487501
0.044987306 0.10141914 0.56503326
0.056360301 0.10129496 0.56668425
0.06475573 0.10136977 0.56664008
0.074405774 0.10123694 0.56483871
0.085492171 0.10153484 0.56813043
0.095282428 0.10169166 0.56843996
0.10079429 0.1013362 0.56900001
0.11617 0.10217487 0.5687201
0.122006 0.10211035 0.56900012
-0.12298293 0.1144501 0.56838113
-0.11519939 0.11514133 0.56682223
-0.10499588 0.11488974 0.56586504
-0.095029652 0.11554791 0.56693858
-0.085206456 0.11518532 0.56698883
-0.075397089 0.11496963 0.56753892
-0.064578071 0.11524551 0.5665952
-0.055021755 0.11478607 0.56852192
-0.046349566 0.11323214 0.56854022
-0.038458094 0.1110419 0.56875002
-0.12160614 0.12455136 0.56819463
-0.11474191 0.12517083 0.56765932
-0.10475002 0.12523428 0.56709796
-0.095180944 0.12534416 0.56752551
-0.084939025 0.12510064 0.56806445
-0.074670866 0.12452596 0.56805038
-0.065472499 0.12409744 0.56730169
-0.056524761 0.12036096 0.56800002
-0.049855236 0.12030286 0.56900001
-0.12117116 0.1315396 0.56871432
-0.11358978 0.13350968 0.56806833
-0.10476508 0.13478522 0.56805187
-0.095645167 0.13443972 0.56836408
-0.08415731 0.13298491 0.56896383
-0.075699933 0.1318496 0.56900018
-0.065766506 0.13510118 0.56876481
-0.091961913 0.1487619 0.56800008
-0.088690162 0.14871778 0.56783342
-0.091800004 0.15066001 0.56700003
-0.088560008 0.15066001 0.56700003
-0.13574713 0.16573253 0.56900012
-0.14284609 0.188908 0.56900007
-0.13894437 0.18923317 0.56900001
-0.12108175 0.1853227 0.56841671
-0.11871549 0.18461974 0.56768429
-0.080201901 0.18587333 0.56900001
-0.077943496 0.18421303 0.56833339
-0.15133679 0.19641243 0.56886673
-0.1448184 0.19526444 0.56831545
-0.13529181 0.19496535 0.56816709
-0.12554774 0.19555959 0.56783861
-0.11531014 0.19635023 0.56567651
-0.10494889 0.19821669 0.56900012
-0.096056484 0.19722232 0.56900018
-0.084358081 0.19633126 0.56822932
-0.076035455 0.19598901 0.56741953
-0.15101081 0.20176922 0.56900001
-0.14510667 0.20495561 0.5686121
-0.13497967 0.20502767 0.56822258
-0.12534651 0.20540382 0.56724757
-0.11514842 0.20537259 0.56659263
-0.10444808 0.20594174 0.56820703
-0.096221827 0.207123 0.56758833
-0.08367154 0.20664276 0.56808835
-0.076083131 0.20574017 0.56687343
-0.066762149 0.20954075 0.5670625
-0.14507422 0.21278529 0.56877297
-0.13510728 0.21290015 0.56679553
-0.12452137 0.21379223 0.56350672
-0.11511863 0.21401808 0.5642131
-0.10502615 0.21450293 0.56440997
-0.09538988 0.21418805 0.56422925
-0.085213751 0.21313183 0.56428337
-0.074978955 0.21441251 0.56424963
-0.065243788 0.21433589 0.56474662
-0.12210751 0.22490035 0.56731248
-0.11817144 0.22022858 0.56400001
-0.074662857 0.22022857 0.56400001
0.059002861 -0.04080572 0.57900006
0.065821953 -0.041744601 0.57804364
0.074722387 -0.042515885 0.57597721
0.085737571 -0.04230804 0.57647228
0.093822971 -0.04187138 0.57768428
0.10036001 -0.04080572 0.57900006
0.048044048 -0.032421075 0.57818758
0.055465158 -0.034435917 0.57607245
0.064982906 -0.034950241 0.57390821
0.075082354 -0.03498007 0.57230145
0.085017934 -0.034977853 0.57194954
0.0948238 -0.034820959 0.57320505
0.10410745 -0.034373853 0.57603377
0.11154614 -0.032849394 0.57900012
0.045586415 -0.024805093 0.5769428
0.05473192 -0.025299955 0.57244045
0.063858055 -0.028048074 0.57052386
0.074072383 -0.029324574 0.57020009
0.088485725 -0.029314287 0.57000005
0.097732447 -0.027262559 0.57010531
0.10496546 -0.025471879 0.5715735
0.11310609 -0.024222568 0.57692325
0.039457779 -0.016665399 0.57900006
0.044946562 -0.015352218 0.57562965
0.054438539 -0.01531805 0.57179981
0.1066255 -0.015253591 0.57106817
0.11454468 -0.015184034 0.57441097
0.12174235 -0.01451934 0.57780778
0.039702859 -0.0050731436 0.57900006
0.044964436 -0.0054838327 0.57588911
0.053492103 -0.0053189569 0.5714677
0.066228576 -0.0016285714 0.57000005
0.10755428 -0.0046110684 0.57051343
0.11524829 -0.005437219 0.57413536
0.12207452 -0.0062682405 0.5778262
0.045502577 0.00450812 0.5770998
0.055073403 0.0049119433 0.57261014
0.065582819 0.0072799996 0.57021254
0.071443394 0.0084480438 0.57022232
0.08574196 0.0087914746 0.57014287
0.095746614 0.0066946899 0.57096142
0.10478744 0.0050663385 0.57228726
0.11462333 0.0048774369 0.57551849
0.12102808 0.0027178419 0.57833338
0.047420319 0.013025239 0.57787508
0.054985132 0.015275021 0.57601202
0.064972617 0.015356296 0.57234079
0.075068198 0.015479277 0.57181841
0.084968865 0.015253703 0.57190126
0.094941095 0.015281104 0.57290155
0.10518797 0.015343541 0.57522225
0.11326116 0.014268022 0.57728946
0.05732011 0.022598201 0.5787223
0.065271281 0.024635641 0.57756925
0.075139038 0.025164215 0.575459
0.085095949 0.025170071 0.57439542
0.094967015 0.025164787 0.57628942
0.10390864 0.023599392 0.57740903
0.11052635 0.021297146 0.57833338
0.074941337 0.030858666 0.57860011
0.08531905 0.031332504 0.57843763
0.093287252 0.031561531 0.57800013
-0.12193651 0.048555557 0.57500005
-0.11816404 0.048433863 0.57500005
-0.10195362 0.047239158 0.57680005
-0.09727329 0.047440741 0.57804358
-0.052651007 0.049100745 0.57855558
-0.13252997 0.056939352 0.57712013
-0.12476357 0.054972425 0.57397115
-0.11566416 0.053253651 0.57253063
-0.10460822 0.052993663 0.57186538
-0.095673181 0.052802201 0.57447821
-0.083761029 0.053828284 0.57169229
-0.075247332 0.053987581 0.57198358
-0.065109812 0.055137742 0.57345009
-0.054651976 0.055778414 0.57509428
-0.045317944 0.056362145 0.57559735
-0.035458896 0.056997042 0.57528001
-0.025349548 0.05724404 0.57693022
-0.015555578 0.057821665 0.57726461
-0.0061712638 0.058449369 0.57756513
0.0039919643 0.057821065 0.57787502
0.014153334 0.059186667 0.57900006
0.028097622 0.059502859 0.57850003
0.03306248 0.059513148 0.57860005
-0.14216831 0.06827689 0.57900006
-0.13444206 0.065369084 0.57452315
-0.12888874 0.064089864 0.57088238
-0.054919489 0.060947191 0.57045466
-0.044211578 0.062028576 0.57060719
-0.034628164 0.062284131 0.57154751
-0.024864458 0.064616777 0.57189512
-0.015271452 0.064903639 0.57273334
-0.0054622218 0.064996846 0.57356679
0.0049224189 0.065057829 0.57411039
0.015336273 0.065167248 0.57508904
0.025191162 0.065158397 0.57500035
0.034991063 0.065327354 0.57550007
0.044950556 0.06538251 0.57635641
0.054842159 0.065807186 0.57584137
0.064169452 0.066849612 0.57682228
0.075219862 0.067252494 0.57816273
0.083204865 0.066801228 0.57836115
0.093191437 0.069480009 0.57900006
0.10561801 0.068482868 0.57850021
0.11028572 0.068928577 0.57900006
0.12848288 0.069480009 0.57900006
-0.14226858 0.072237156 0.57900006
-0.1353596 0.074829057 0.5738939
-0.12883812 0.071295246 0.57000005
-0.024087049 0.074895874 0.57010591
-0.015215238 0.075000048 0.57066637
-0.0054412466 0.07505364 0.57107377
0.0048964024 0.075076006 0.57124406
0.015248275 0.075138763 0.57171595
0.025102858 0.075308569 0.57300061
0.034933332 0.075323164 0.57311165
0.044945449 0.075060226 0.57486552
0.054780692 0.075048395 0.57521147
0.06456773 0.074961543 0.57455599
0.074718408 0.075208031 0.57549489
0.084649988 0.074897133 0.57696372
0.094362527 0.075309128 0.57791644
0.10465395 0.074927106 0.5780496
0.11164369 0.076289602 0.57800013
0.12522443 0.073941574 0.57900023
0.13510001 0.076648578 0.57900006
0.16352318 0.079581589 0.57233334
-0.14187367 0.086955883 0.57788897
-0.13570602 0.085044652 0.57410598
-0.024363099 0.083495706 0.5700624
-0.013777998 0.083305694 0.57003444
-0.0055599771 0.084595636 0.57052523
0.0051910728 0.084545232 0.57099956
0.015261774 0.085017689 0.57223475
0.025076758 0.085045762 0.5724321
0.034907583 0.085084118 0.57267946
0.044782996 0.085193813 0.57343251
0.054679971 0.085302196 0.57413608
0.064612702 0.085420996 0.57493865
0.07469032 0.085115306 0.57600009
0.085057899 0.085240357 0.57596219
0.094579473 0.084577374 0.57703727
0.10515044 0.084999502 0.57813299
0.11299726 0.085223339 0.57584906
0.16289087 0.085003912 0.57443869
-0.14202926 0.092768408 0.57776475
-0.1345402 0.094773248 0.57330304
-0.12920001 0.09771429 0.57000005
-0.020628573 0.090114295 0.57000005
0.0069750799 0.090659052 0.57058346
0.015831612 0.092511289 0.57123816
0.024819147 0.092314623 0.57225657
0.035211913 0.092641972 0.57267439
0.044577021 0.092663407 0.57204461
0.055010244 0.09298297 0.57306254
0.064470157 0.093344428 0.57294458
0.075193837 0.093588702 0.575077
0.084918536 0.093841277 0.5755353
0.095389828 0.094288871 0.57547367
0.10509671 0.094926216 0.57513672
0.11335468 0.093266793 0.57387882
0.1238204 0.097282223 0.57321626
0.13451484 0.098892786 0.5775519
0.14452931 0.099180013 0.57677788
0.15525667 0.099162206 0.57685012
0.16206791 0.095073707 0.57715154
-0.14006287 0.1058743 0.57900006
-0.134565 0.10501838 0.57432312
-0.12868835 0.10641405 0.57043755
-0.058487449 0.10749056 0.57054555
-0.033312157 0.1073158 0.57011753
-0.025475932 0.10571823 0.57137859
-0.015341772 0.1055355 0.5714761
-0.0053517688 0.10611337 0.57210743
0.004869462 0.1061281 0.57211292
0.015047426 0.10653399 0.57246
0.025124738 0.10705051 0.57346696
0.034857567 0.10677418 0.5751484
0.044793542 0.10740816 0.5742439
0.054604705 0.10688987 0.57625455
0.064970113 0.10736635 0.57653487
0.074861288 0.1072981 0.57723516
0.084790245 0.10676217 0.57654756
0.094595805 0.10704976 0.57508522
0.10499925 0.1037115 0.57173657
0.11426555 0.10626154 0.57228273
0.12644254 0.10268673 0.57347625
0.135243 0.10306115 0.57417011
0.144712 0.10331307 0.57600003
0.15599479 0.10428763 0.57584149
0.16317888 0.10455601 0.57533336
-0.14006287 0.11855716 0.57900006
-0.13462631 0.11501107 0.57496709
-0.12773098 0.1159064 0.57063633
-0.056791216 0.1155033 0.57000017
-0.043337483 0.11716425 0.57059979
-0.034615088 0.11551645 0.57114249
-0.025034513 0.11495221 0.57203555
-0.015264267 0.1144929 0.5724569
-0.0054574255 0.11461312 0.5730623
0.0049236394 0.11483935 0.57417816
0.015320988 0.11490759 0.57451892
0.025220044 0.11512673 0.57562989
0.035124265 0.11525369 0.57625932
0.045017701 0.1152878 0.57643211
0.054901939 0.11518557 0.57706469
0.064789958 0.11492614 0.57738429
0.074850984 0.11433645 0.57834166
0.084367052 0.11313461 0.57877386
0.092655919 0.11248516 0.57829416
0.1021981 0.1111435 0.57900006
0.1155073 0.11498263 0.57754844
0.12000381 0.11119619 0.57800001
0.15859923 0.11487108 0.57786369
0.1611308 0.1144437 0.57677776
-0.13392583 0.12462619 0.57531255
-0.12713018 0.12519301 0.57153332
-0.090114295 0.12865716 0.57000005
-0.062645398 0.12800857 0.57033348
-0.054954696 0.12545761 0.57103616
-0.044733275 0.12504312 0.5711441
-0.034855332 0.12525792 0.57182688
-0.024989454 0.12521586 0.57252401
-0.015286087 0.12448059 0.57325977
-0.0054673962 0.12469848 0.57425964
0.0049358089 0.12499603 0.57563359
0.015369243 0.12514298 0.57630867
0.025266133 0.12523001 0.57670361
0.035191488 0.12537007 0.57735771
0.044896625 0.12455792 0.57768148
0.054305196 0.12348586 0.57820404
0.064451925 0.12213141 0.57841182
0.075545721 0.12152109 0.57900012
0.11464644 0.12401967 0.57717454
0.15833947 0.12158859 0.57842857
0.16117944 0.12088457 0.57800001
-0.13297608 0.13441224 0.57585442
-0.1251407 0.13550939 0.57208055
-0.11695614 0.13721803 0.57060719
-0.10409287 0.13802144 0.57000011
-0.091534086 0.13755167 0.57000017
-0.086170144 0.13732149 0.5700714
-0.074489146 0.13585022 0.57007253
-0.064971901 0.13449602 0.57029665
-0.055012386 0.13508357 0.57192194
-0.044796541 0.13496031 0.57235056
-0.034920085 0.1347753 0.57291698
-0.02513879 0.13499089 0.5738337
-0.015311936 0.13453038 0.57421029
-0.0054723346 0.13471445 0.57498789
0.0049404441 0.13501698 0.57628894
0.015250045 0.13499211 0.57715565
0.025432829 0.13502114 0.57728541
0.035132576 0.13478729 0.57736945
0.041973446 0.13273212 0.57900012
0.052385721 0.13013716 0.57900006
0.11377905 0.13337319 0.5784784
0.15936287 0.13730572 0.57900006
-0.13343906 0.14293453 0.57806259
-0.12439062 0.1441908 0.57431042
-0.11474604 0.14484318 0.5728057
-0.10510243 0.14474921 0.57142293
-0.094672099 0.14384821 0.5713042
-0.08503022 0.1446577 0.5721314
-0.075165741 0.14493936 0.57232505
-0.065125503 0.14499868 0.57360995
-0.054793589 0.144961 0.57456195
-0.044866256 0.14506568 0.5758028
-0.035121445 0.14488067 0.5762099
-0.025253624 0.1449431 0.5764569
-0.015694158 0.14451231 0.57656944
-0.0055786679 0.14360276 0.57741809
0.0045478516 0.14280586 0.57759976
0.015987618 0.14246385 0.57881266
0.024663219 0.14404829 0.57858622
0.034678731 0.14030796 0.57900006
-0.1506874 0.15795381 0.57587504
-0.14468342 0.15803841 0.57475013
-0.13493733 0.15821026 0.57234997
-0.12499528 0.15757897 0.57377088
-0.11502208 0.15774174 0.57511121
-0.10504486 0.15794972 0.57604361
-0.095318839 0.15753794 0.57546818
-0.08545132 0.15709059 0.57518935
-0.07443554 0.15840447 0.57613802
-0.064714357 0.15688203 0.57720697
-0.054537091 0.15554829 0.57644445
-0.046763357 0.1550854 0.57652944
-0.034989242 0.15466838 0.57855004
-0.02499238 0.15139417 0.57831258
-0.018000238 0.1510143 0.57712507
-0.15106952 0.16527201 0.57195842
-0.14466128 0.16486269 0.57052284
-0.13444881 0.16490312 0.57042831
-0.12497332 0.16478218 0.57103288
-0.11507737 0.16478547 0.57135451
-0.10484372 0.16505431 0.57150996
-0.094814226 0.16510531 0.57215565
-0.084917068 0.16500935 0.57228267
-0.07520555 0.16510634 0.57258683
-0.065054998 0.16499723 0.57390493
-0.05489181 0.1650511 0.57517272
-0.044891845 0.16528367 0.57535756
-0.035198931 0.16501714 0.57625294
-0.025617313 0.16581666 0.57752162
-0.015572757 0.16664501 0.57803565
-0.0054036374 0.16601437 0.57790911
0.0034765811 0.16738385 0.57833338
0.015630146 0.16858497 0.57900029
0.020954289 0.16818574 0.57900006
-0.15311816 0.17592864 0.57343185
-0.14456142 0.17499249 0.57062924
-0.13469222 0.17488439 0.57027131
-0.12504388 0.17506123 0.57085139
-0.11523324 0.17502879 0.57074028
-0.10497703 0.17514436 0.57112169
-0.094634801 0.17512882 0.57107359
-0.08485432 0.1751485 0.57113534
-0.075135529 0.17531949 0.5716911
-0.06497898 0.17512256 0.57219535
-0.054839622 0.17506459 0.57447028
-0.044904761 0.17523806 0.57500046
-0.034981273 0.17510325 0.57520276
-0.02519325 0.17511962 0.57623607
-0.015443991 0.17477065 0.57663846
-0.005495403 0.17476757 0.57706147
0.0049586878 0.17513102 0.57825512
0.012911293 0.17271963 0.57861918
-0.15407395 0.18485963 0.57272309
-0.14479978 0.1843192 0.57003826
-0.13471191 0.1847063 0.5705871
-0.12593988 0.18456744 0.57081497
-0.11440831 0.18466265 0.57089365
-0.1049847 0.18494928 0.57116622
-0.094723269 0.18509279 0.57160479
-0.08501032 0.18499403 0.57143003
-0.074865095 0.18508841 0.57163972
-0.064941294 0.18511887 0.57303363
-0.054736227 0.18501116 0.57474113
-0.044884041 0.18500893 0.57472873
-0.035058185 0.18515575 0.57518554
-0.025346857 0.18507671 0.57622981
-0.015416179 0.18492794 0.57713556
-0.0055035874 0.18491058 0.57783914
0.0035432228 0.18363743 0.57900035
0.025917146 0.18583144 0.57900006
-0.16076571 0.1953124 0.57125008
-0.15589221 0.19461572 0.57141918
-0.14765716 0.19108574 0.57000017
-0.1334524 0.19054288 0.57000017
-0.12413388 0.19111004 0.57020837
-0.11480735 0.1918653 0.56999987
-0.10528061 0.19400032 0.57037812
-0.094250508 0.19370849 0.5705235
-0.085479438 0.19222362 0.57059443
-0.073899165 0.19293523 0.57099998
-0.065061748 0.19499616 0.57227671
-0.054791164 0.19491078 0.57287234
-0.044969723 0.19492738 0.57435751
-0.035012148 0.19530261 0.57443398
-0.025228376 0.19494562 0.57588911
-0.015279766 0.1949704 0.57635224
-0.0055796755 0.19512029 0.57798797
0.0042377724 0.19648917 0.57849151
0.015021908 0.19720563 0.57809532
0.022037337 0.19546351 0.57846677
0.034451839 0.19892818 0.57814288
0.04780459 0.19708264 0.5787729
0.052451815 0.19867314 0.57850003
0.10918287 0.19575717 0.57900006
0.11074143 0.19448525 0.57850003
-0.16151349 0.20725636 0.57571435
-0.15552992 0.2053977 0.57183319
-0.11300477 0.20592384 0.57000017
-0.10916364 0.20332472 0.57000017
-0.093738608 0.20437732 0.57007253
-0.085910775 0.20515831 0.5702306
-0.072162524 0.20523869 0.57032138
-0.065079279 0.20503661 0.57122189
-0.055031851 0.20487547 0.5721221
-0.044618301 0.20473365 0.57278216
-0.034940898 0.20528732 0.57327193
-0.025149984 0.20501141 0.57506293
-0.015343921 0.20497923 0.57546932
-0.00541258 0.20497528 0.57636046
0.0048919329 0.20457363 0.57725251
0.015269076 0.20473699 0.5768159
0.025226446 0.20578773 0.57832193
0.035195205 0.2045735 0.57741934
0.045169499 0.20490487 0.57819968
0.054912455 0.20512392 0.57840753
0.064238377 0.20566404 0.57891518
0.070897967 0.20639187 0.57900012
0.10834765 0.20654583 0.57813054
0.11190411 0.2060159 0.57815403
0.14902391 0.20775324 0.57811117
0.15167701 0.20758192 0.57792866
-0.16124974 0.21397829 0.57550001
-0.15508765 0.21487649 0.57263649
-0.14468868 0.21771938 0.57066673
-0.13713613 0.21809064 0.57068431
-0.061595242 0.21159969 0.57066673
-0.055199228 0.21462083 0.57324731
-0.044797245 0.21470264 0.57362527
-0.034966718 0.21473159 0.57370865
-0.025174631 0.21506846 0.57592523
-0.015346785 0.21517758 0.57651252
-0.0056126737 0.21491028 0.57610267
0.0050093946 0.21471003 0.57793218
0.015492461 0.21501948 0.57809424
0.025520053 0.21463062 0.5785197
0.035254642 0.21503912 0.57883722
0.043869901 0.21332899 0.57848847
0.056804232 0.21405429 0.57862163
0.062953591 0.21246736 0.57890928
0.09750998 0.2190122 0.5778001
0.10620522 0.2161373 0.57706249
0.11395278 0.21606401 0.5764631
0.12608764 0.21912099 0.57850009
0.13349192 0.21963905 0.57800007
0.14679855 0.21667148 0.57860017
0.15183136 0.21498927 0.57800007
-0.16018288 0.22326858 0.57600003
-0.15520327 0.22499835 0.57537329
-0.14514877 0.22491124 0.57318658
-0.13486217 0.22533071 0.57342523
-0.12557006 0.22573699 0.57286012
-0.11462293 0.22559372 0.57450879
-0.10529027 0.22628684 0.57459205
-0.094986603 0.22564043 0.57432771
-0.085466035 0.22516295 0.57505667
-0.075183623 0.22664188 0.57607508
-0.064674526 0.22631857 0.57673204
-0.054783329 0.22490025 0.57624048
-0.045111421 0.22477809 0.57687652
-0.035203394 0.2249869 0.57758325
-0.026743697 0.22369584 0.57825017
-0.015422029 0.22217532 0.57830453
-0.0090335244 0.22188573 0.57840008
0.0084520644 0.22134456 0.57877779
0.012761635 0.22088654 0.57900012
0.02742758 0.22272925 0.57900023
0.031431433 0.22057144 0.57900006
0.041836195 0.22019047 0.57800001
0.096596241 0.22334345 0.5767805
0.10554107 0.2241233 0.57610458
0.11479513 0.22268231 0.576244
0.1255655 0.22253741 0.5769183
0.13467357 0.2228356 0.57600015
0.14539461 0.22249083 0.57669795
0.15502998 0.22453052 0.57811451
-0.15443334 0.23457575 0.57684052
-0.14462517 0.2348347 0.575095
-0.13468631 0.23508209 0.57506448
-0.12459505 0.23535709 0.57427061
-0.11511101 0.23460941 0.57555586
-0.10527818 0.23468508 0.57574105
-0.095427342 0.23472859 0.5758521
-0.085511252 0.23487015 0.57609773
-0.074967958 0.2347123 0.57654285
-0.0648048 0.2347973 0.57785302
-0.055191223 0.23508653 0.57840502
-0.045435958 0.23391692 0.5787859
-0.03546511 0.23467068 0.57894677
-0.029409528 0.23086476 0.57900012
0.10591404 0.23762487 0.57731825
0.15578477 0.23009905 0.57800001
-0.16200975 0.24351089 0.57900006
-0.15488705 0.24508558 0.57851416
-0.14491382 0.24481626 0.57635802
-0.13516444 0.24493182 0.57648653
-0.12505651 0.24535541 0.57693315
-0.11516319 0.24514467 0.57699978
-0.10523041 0.24483578 0.5765925
-0.095108807 0.24494553 0.57713556
-0.084759995 0.24485794 0.57734144
-0.074221909 0.24554124 0.57839608
-0.065035343 0.24473231 0.57896084
-0.056411147 0.24284911 0.57900035
-0.043805487 0.24293739 0.57900023
-0.036945719 0.24121065 0.57900012
0.1072375 0.24245586 0.57743758
-0.1531588 0.25143448 0.57736832
-0.14496857 0.25220227 0.57647353
-0.13506351 0.25277242 0.57834804
-0.12483246 0.25307983 0.57821071
-0.11515384 0.25250316 0.57718587
-0.10491705 0.25234926 0.57896572
-0.094517767 0.25296217 0.57889766
-0.085655905 0.25248647 0.57884395
-0.074783646 0.25101113 0.57888246
-0.066934951 0.25136662 0.57900006
-0.18197143 0.26082575 0.57900006
-0.17627335 0.26082575 0.57900006
0.057466462 -0.050984342 0.58900005
0.064951263 -0.051039331 0.58852935
0.075300887 -0.051741756 0.58722579
0.084362611 -0.051915377 0.58739996
0.091476582 -0.05160724 0.58640003
0.10467714 -0.050378576 0.58775002
0.038144767 -0.040949531 0.58900005
0.046102758 -0.042464111 0.58665788
0.055067163 -0.04493501 0.58442861
0.064645119 -0.046317797 0.58243138
0.07544852 -0.047490537 0.58340001
0.084918447 -0.047100313 0.58230764
0.09594807 -0.046100955 0.5815919
0.10518648 -0.04481798 0.58429503
0.11440311 -0.043171588 0.58626324
0.1211962 -0.040646985 0.58733332
0.036272574 -0.033747546 0.5863654
0.044385865 -0.035783995 0.58288717
0.052481469 -0.038703006 0.58053845
0.10718621 -0.038769286 0.58049995
0.11545949 -0.035520162 0.58113569
0.12425306 -0.033991583 0.58660007
0.13014096 -0.030852383 0.58900005
0.02887667 -0.021027144 0.58875
0.035104029 -0.02487595 0.58361179
0.041932642 -0.028459225 0.58072734
0.11633891 -0.026399756 0.5801304
0.12521496 -0.024845609 0.5844059
0.13241591 -0.024002429 0.58844835
0.028255502 -0.01405169 0.58804542
0.034435939 -0.014912215 0.58288896
0.11931429 -0.019885715 0.58000004
0.12642184 -0.015791811 0.58282512
0.1328961 -0.014115632 0.58629537
0.028168255 -0.0054409076 0.5881905
0.034819331 -0.0053577893 0.58290148
0.12664631 -0.0049779257 0.58243591
0.13266043 -0.0056079887 0.58566666
0.028935239 0.0013462858 0.58880007
0.035237342 0.0044899471 0.58403367
0.041781142 0.0085116196 0.58030003
0.12538558 0.0054532718 0.58201611
0.1311045 0.0047942861 0.58757144
0.036159974 0.013833968 0.58725005
0.044286255 0.016341552 0.58208776
0.11735954 0.016348703 0.58144826
0.12494434 0.014686035 0.58538336
0.13126285 0.010658097 0.58900005
0.038593527 0.020867432 0.58900005
0.045189317 0.024329729 0.58512175
0.054618131 0.025985844 0.58166677
0.063774891 0.029125545 0.57999998
0.070704766 0.029828573 0.58000004
0.099428579 0.029828573 0.58000004
0.10606904 0.02787506 0.58099997
0.1153741 0.025033029 0.58483863
0.12210167 0.021864286 0.58674997
0.047435649 0.032497145 0.58829176
0.055025682 0.03427048 0.58544171
0.065027788 0.034996416 0.58300024
0.075081907 0.03527059 0.58258826
0.084919192 0.035918295 0.58237499
0.095125742 0.035957873 0.58317304
0.1041689 0.034761056 0.58565509
0.11409387 0.0322503 0.58759385
-0.12649524 0.04971429 0.58000004
0.066208407 0.041929059 0.58779311
0.074802905 0.043829933 0.58628768
0.085192256 0.043286517 0.5868597
0.094203748 0.041868839 0.58803451
0.10265429 0.040388577 0.58900005
-0.14100154 0.058045723 0.58380002
-0.13588947 0.055410057 0.58179313
-0.12837334 0.051260956 0.58000004
-0.06370794 0.051555559 0.58000004
-0.042836484 0.052100517 0.58007687
-0.039219052 0.052476194 0.58000004
-0.013633952 0.05488807 0.58252949
-0.0065853721 0.055391472 0.58400005
0.0078156469 0.056686401 0.58028573
0.016021539 0.056509551 0.5817436
0.024936508 0.057948135 0.58096683
0.036119953 0.057382856 0.58202624
0.045081083 0.05736291 0.58313733
0.055195101 0.058101777 0.58085716
0.064908281 0.058094509 0.58480775
0.074073121 0.058659937 0.58446163
0.084725156 0.058902297 0.58347058
0.096540235 0.058301248 0.58515394
0.10261982 0.059117712 0.58560002
0.1178 0.05946096 0.58900011
0.12228763 0.059460957 0.58900005
0.13364077 0.058971811 0.58860004
0.1486524 0.058900002 0.58900005
0.15033524 0.059460957 0.58900005
-0.1420801 0.063980952 0.58131582
-0.1388541 0.061688006 0.58040005
0.039219052 0.060761906 0.58000004
0.045339897 0.060820103 0.58055556
0.055292483 0.06137269 0.5805555
0.066225313 0.062447209 0.5822618
0.074753992 0.062266223 0.58197808
0.086204007 0.063454762 0.58170587
0.095096074 0.064619772 0.58141714
0.10445336 0.063916653 0.58227295
0.11525275 0.065059975 0.58327883
0.12457881 0.06532383 0.58365846
0.13478217 0.065616317 0.5845679
0.14518578 0.065770991 0.58644432
0.15448447 0.065933242 0.58722967
0.16434634 0.067164347 0.58746153
0.17154214 0.068672389 0.58862507
-0.14302419 0.075038843 0.57999998
0.097464561 0.07144127 0.57999998
0.10053334 0.070704766 0.58000004
0.11647388 0.074501798 0.58072215
0.12468139 0.075559571 0.58032203
0.13480861 0.074903518 0.58053648
0.14491391 0.07530129 0.58160281
0.15526557 0.074960016 0.58385694
0.16462272 0.074638084 0.58324361
0.1748433 0.075130522 0.58720315
0.18062669 0.077972382 0.58900005
-0.14306669 0.083851434 0.57999998
0.11813702 0.084297158 0.58026928
0.12504007 0.085204057 0.58093852
0.13505429 0.085238867 0.58117312
0.14507075 0.085270993 0.58138287
0.15528823 0.08527118 0.58269531
0.16352804 0.083754078 0.58200002
0.17431164 0.084801205 0.58680338
-0.14217438 0.096964121 0.57999998
0.11931429 0.092800014 0.58000004
0.12538651 0.093156509 0.58046794
0.13504994 0.093979731 0.58069354
0.14508238 0.094759159 0.58216679
0.15494531 0.094639502 0.58254683
0.16651185 0.095735453 0.58519995
0.17513789 0.095120907 0.58751422
0.18123864 0.096279837 0.58900011
-0.14139898 0.10496455 0.58099997
0.10761376 0.10908869 0.58111113
0.11084446 0.10900319 0.58000004
0.12657854 0.10790742 0.58057696
0.13451269 0.10843244 0.58112007
0.14537606 0.10871657 0.58071434
0.15360844 0.10813425 0.58305264
0.16896857 0.10082237 0.58649999
0.17497805 0.10540576 0.58786875
0.18166229 0.10347416 0.58900017
-0.14286937 0.11455809 0.5826177
0.076007627 0.11843049 0.58000004
0.086064018 0.11779023 0.58007145
0.095799983 0.11610135 0.58021057
0.10540979 0.11548793 0.58073634
0.11405301 0.11542238 0.58047813
0.1251815 0.11530642 0.58228409
0.13526422 0.11553057 0.58313954
0.14499404 0.11490085 0.58294022
0.15422671 0.11517003 0.58331424
0.16762227 0.11612429 0.5877586
0.17371742 0.11420327 0.58862007
-0.14295922 0.12576278 0.58255559
-0.13889797 0.1260204 0.58071434
0.047688894 0.12907302 0.58000004
0.056792948 0.1274159 0.57999998
0.065758452 0.12697227 0.57999998
0.075000212 0.12562343 0.58009249
0.085173398 0.12499356 0.58071643
0.095180087 0.12506217 0.58103734
0.10524059 0.12518488 0.58160526
0.11349882 0.12617868 0.58073336
0.12512548 0.12474648 0.58224678
0.1351226 0.12495157 0.58324295
0.14508496 0.12490992 0.58453298
0.15457892 0.12529935 0.58387172
0.16570917 0.12566644 0.58635998
0.17177448 0.12425395 0.58895993
-0.14365491 0.13396041 0.58388084
-0.13849895 0.13570926 0.58108693
0.046158336 0.13526432 0.58000022
0.055340841 0.13496971 0.58032954
0.065232724 0.1348916 0.58046949
0.075238861 0.13498586 0.58087689
0.085276507 0.13511148 0.58142006
0.095309727 0.13520919 0.58183986
0.1053291 0.13520847 0.58231682
0.11488305 0.13585347 0.58212495
0.12482576 0.13486929 0.58423334
0.13476044 0.13475996 0.58470327
0.14492653 0.13489211 0.58527136
0.15518329 0.1348007 0.58420914
0.16566253 0.13473436 0.58707023
0.17125677 0.13463877 0.58879995
-0.13693704 0.14270025 0.58099997
-0.013041143 0.14897333 0.58020002
-0.0052678999 0.148744 0.58047062
0.0054982319 0.14785925 0.58065706
0.015326366 0.14676754 0.58043176
0.027032912 0.14713746 0.58055556
0.03553189 0.1454796 0.58064818
0.045379139 0.14499375 0.58107436
0.055546749 0.14483212 0.58184028
0.065219522 0.14464833 0.58200032
0.075080514 0.1448499 0.58284295
0.084814526 0.14512944 0.58355051
0.094748147 0.14510418 0.58389026
0.10488548 0.14528787 0.58466631
0.11453874 0.1448614 0.58443087
0.1248688 0.14494006 0.58532077
0.13481325 0.14467841 0.58605468
0.14493527 0.1447612 0.58698577
0.15504748 0.14461611 0.5850817
0.16441119 0.14263463 0.58733332
-0.14545728 0.15600003 0.58560008
-0.13545753 0.15728229 0.58400005
-0.12493546 0.1570728 0.58855563
-0.11792357 0.15588738 0.58626676
-0.10516337 0.15696602 0.58638465
-0.091435246 0.15818858 0.58900005
-0.08482375 0.15770371 0.58702326
-0.075100914 0.15742785 0.58739591
-0.065656506 0.15796585 0.5848667
-0.057436712 0.15779307 0.58190918
-0.043663811 0.15917717 0.58033335
-0.036022186 0.15875521 0.58141178
-0.028723812 0.15245716 0.58000004
-0.012970756 0.15330051 0.58170593
-0.0048785438 0.15427555 0.58398044
0.0047350386 0.15264751 0.58305281
0.015019313 0.15266162 0.583
0.024531331 0.15171982 0.58252633
0.034670781 0.15172289 0.58321047
0.045309525 0.15305425 0.58202064
0.055001728 0.15297551 0.58347058
0.064773038 0.15381193 0.58470154
0.074963853 0.15327306 0.58584321
0.084832869 0.15373142 0.58642876
0.094926037 0.15318622 0.58741874
0.10530984 0.15262674 0.58760607
0.1145874 0.15169071 0.58823079
0.12412346 0.15312904 0.58836371
0.13551655 0.15315846 0.58841306
0.14353943 0.15244244 0.58825636
0.15395029 0.15070923 0.58900005
-0.043453969 0.16055873 0.57999998
-0.030933335 0.16019049 0.58000004
-0.024612818 0.16119482 0.58018178
-0.014897904 0.16176996 0.58162504
-0.0058044451 0.16128391 0.5804584
0.0058245468 0.16360588 0.58151615
0.015096026 0.16396061 0.58184493
0.025715521 0.16645987 0.58220369
0.0348171 0.16577339 0.58349407
0.044907592 0.16622896 0.58338571
0.054931842 0.16609369 0.58436358
0.064936996 0.16569757 0.58572423
0.074473195 0.16619103 0.58497328
0.085165046 0.16677701 0.58607274
0.094419867 0.16685802 0.5858075
0.10478884 0.16864476 0.58713347
0.11510638 0.16904034 0.58757699
0.12565309 0.16847849 0.58816129
0.13387187 0.16881579 0.58836371
0.14388424 0.16898373 0.58861107
0.15399942 0.16794211 0.58865219
0.16043238 0.16940764 0.58900005
0.0088380957 0.17013335 0.58000004
0.016516006 0.17601295 0.58031368
0.025426829 0.17467371 0.5804078
0.035364918 0.17460798 0.58018565
0.04535633 0.17478447 0.58076578
0.055492647 0.17501098 0.58196414
0.065258555 0.17512862 0.5825904
0.075135015 0.17506857 0.5825327
0.085260607 0.17474964 0.58345115
0.094935663 0.1743876 0.58333772
0.10474119 0.17476204 0.5843541
0.11478934 0.17496644 0.58508605
0.12475485 0.17480162 0.58541161
0.13505755 0.17488244 0.58586872
0.14538027 0.17468968 0.58716923
0.15486841 0.17469154 0.58776349
0.16392332 0.17624146 0.5889262
0.17389524 0.17894381 0.58900005
-0.16085486 0.18231545 0.5808
0.0066285725 0.18679941 0.57999998
0.015472734 0.18456085 0.58021033
0.025380833 0.18440923 0.58000052
0.035369761 0.18457808 0.58025968
0.045372769 0.18481365 0.58100027
0.055393759 0.18500964 0.58161747
0.065301515 0.1848373 0.5810743
0.075337976 0.18490171 0.58153683
0.084841751 0.18475224 0.58334208
0.0945279 0.18492016 0.5840115
0.10480601 0.18496093 0.58398819
0.11481714 0.18503192 0.5851478
0.12496512 0.18521845 0.58577752
0.13524778 0.18483178 0.58610648
0.14547206 0.18463761 0.58650053
0.15430427 0.18467829 0.58715266
0.16479731 0.18441315 0.58900034
0.17368749 0.18324445 0.58899993
0.0062886463 0.19220027 0.57999998
0.015811905 0.19248185 0.57999998
0.026072385 0.19479169 0.58000046
0.035520501 0.19426973 0.58036876
0.044476781 0.19428952 0.58033854
0.055632479 0.19474152 0.58103836
0.065211669 0.19523042 0.58105725
0.075477496 0.19527766 0.58283561
0.085522205 0.19521633 0.58310586
0.095028535 0.1947984 0.58340544
0.10490295 0.19501168 0.58239806
0.11550651 0.19503815 0.5844776
0.12499481 0.19530429 0.58591342
0.13509446 0.19506834 0.58654559
0.14535505 0.19468647 0.58593059
0.15443246 0.19504586 0.58525431
0.16205722 0.19598515 0.58899999
0.025710827 0.20307535 0.57999998
0.044190478 0.20106667 0.58000004
0.058016829 0.20204477 0.5801667
0.066476464 0.20446146 0.58005553
0.07549087 0.20454559 0.58087373
0.08522819 0.204933 0.58119303
0.095275961 0.2046472 0.58154148
0.10390032 0.20421487 0.58077282
0.11654938 0.20436999 0.58245909
0.12502003 0.20457986 0.58333337
0.13494089 0.20481755 0.58448011
0.14507109 0.20466842 0.58459562
0.15556204 0.20433143 0.58676803
0.16456254 0.20555586 0.58843845
0.17450266 0.20628877 0.5884428
0.18227121 0.20729764 0.58887506
0.019885715 0.21984763 0.58000004
0.023200002 0.21855876 0.58000004
0.037561908 0.2121143 0.58000004
0.046678096 0.2168133 0.58012122
0.053812914 0.21618235 0.58006811
0.066145606 0.21588032 0.58031988
0.075420558 0.21497443 0.58129531
0.085256293 0.21488219 0.58120292
0.09487357 0.21464851 0.58085054
0.10334709 0.21362236 0.5813334
0.11779787 0.21337521 0.58123338
0.12498084 0.21496087 0.5827924
0.13491701 0.21535182 0.58405459
0.1444924 0.21482955 0.58321935
0.15593797 0.21587835 0.58559173
0.16459526 0.21498364 0.58783996
0.17475738 0.21508585 0.58812368
0.18438272 0.21544659 0.58826411
-0.024337918 0.22698592 0.58008111
-0.015445431 0.22712097 0.58008504
-0.0050765038 0.22566448 0.58070487
0.0045338967 0.225513 0.58080298
0.015792031 0.22570647 0.58129245
0.024088681 0.22588532 0.58131111
0.035460118 0.22508883 0.58147621
0.045584317 0.22496414 0.58237493
0.054999717 0.22520372 0.58245903
0.065125614 0.22482516 0.58269334
0.075248204 0.22482809 0.58304298
0.085205682 0.22502899 0.58334243
0.091889143 0.22525285 0.58208001
0.10292 0.22908001 0.58100003
0.11662149 0.22789821 0.58209097
0.12520133 0.22854868 0.58275008
0.13615073 0.22117428 0.58350003
0.14557287 0.22867145 0.58350003
0.15620448 0.22356553 0.58180004
0.16475543 0.22319815 0.58494997
0.17367812 0.22321782 0.58835894
0.18376802 0.22101526 0.58900005
-0.16019049 0.23973335 0.58000004
-0.15908572 0.23918097 0.58000004
-0.044558734 0.23761585 0.57999998
-0.034954663 0.23580043 0.57999992
-0.025307411 0.23514859 0.58077049
-0.015529245 0.23483369 0.58066696
-0.0056464863 0.23463425 0.58208132
0.0048680361 0.23469827 0.58217102
0.015068184 0.23488614 0.58310145
0.024770465 0.23524572 0.58399975
0.034438301 0.23498908 0.58440471
0.044560503 0.23505673 0.58485132
0.054530714 0.23482391 0.58427125
0.064597085 0.23499565 0.58470333
0.074638098 0.23476008 0.58532858
0.084747829 0.23472786 0.58541638
0.094956383 0.23516324 0.58650011
0.10412348 0.23466407 0.58375376
0.11533205 0.23515582 0.5869655
0.12463925 0.23482138 0.58649182
0.13301788 0.2357578 0.58803457
0.14692934 0.2337783 0.5886156
0.15267155 0.23551758 0.58446926
-0.16373144 0.24493296 0.58080006
-0.15798096 0.24323177 0.58000004
-0.065733343 0.2469143 0.58000004
-0.053828996 0.24686483 0.58002776
-0.046190295 0.24584724 0.58003843
-0.035001673 0.24580069 0.58082759
-0.025194842 0.24517651 0.58197582
-0.014805059 0.24494025 0.58301288
-0.005020503 0.24474001 0.58399975
0.0044210027 0.24498914 0.5840776
0.014470295 0.24486955 0.5843454
0.024462625 0.24473049 0.58517766
0.034585875 0.24489607 0.5857361
0.044538718 0.24511746 0.58594584
0.054697834 0.24502322 0.58604181
0.064770989 0.24512222 0.58627772
0.075206123 0.24487838 0.58775705
0.085011892 0.24514116 0.58793688
0.095309824 0.24494714 0.58867627
0.10354023 0.24535877 0.58643478
0.11521143 0.24264218 0.58889484
0.12413879 0.2417144 0.58899999
0.14924914 0.24601848 0.5887
0.15250003 0.24495557 0.58716667
-0.19172789 0.25978288 0.58571428
-0.1845711 0.2595562 0.58372736
-0.17385672 0.25962114 0.58055556
-0.16662802 0.2596069 0.58320004
-0.13300526 0.25706252 0.58149999
-0.12585828 0.25810274 0.58141184
-0.11576732 0.25715268 0.58066672
-0.10463644 0.25647646 0.58022571
-0.094817244 0.2570239 0.58050001
-0.084561095 0.25649452 0.58090478
-0.075247012 0.25554174 0.58136845
-0.064511716 0.25487271 0.58125001
-0.055276595 0.25438759 0.58206338
-0.044833913 0.25435272 0.58168751
-0.035121936 0.25488687 0.5830695
-0.024759198 0.2550036 0.58373058
-0.014593884 0.25479555 0.58499968
-0.005122304 0.25450313 0.58503193
0.0045268303 0.25477922 0.58562839
0.014501403 0.25490138 0.58565253
0.02465269 0.2549341 0.58688754
0.034703992 0.25469413 0.58775038
0.044923518 0.25470313 0.58735234
0.054747827 0.25480977 0.58770293
0.06502904 0.25483182 0.58819723
0.074970841 0.25461709 0.58847469
0.084080644 0.25370842 0.58855563
0.095655665 0.25188088 0.58888894
0.10409694 0.25244662 0.58810711
0.14923905 0.25312287 0.588
0.15215454 0.2539202 0.58709371
-0.19279058 0.26157725 0.58300006
-0.18554653 0.26102763 0.5850001
-0.17414716 0.26124573 0.58200002
-0.16416557 0.26124847 0.58353657
-0.15547185 0.26226252 0.58459383
-0.14544933 0.26239738 0.58647364
-0.13532048 0.26205811 0.58642864
-0.12451836 0.26205003 0.58486372
-0.11581891 0.26306272 0.58730775
-0.10463667 0.26207119 0.58516669
-0.095296517 0.26244447 0.58600008
-0.085085362 0.26258007 0.58776927
-0.075707115 0.26185817 0.58653861
-0.065184452 0.26181173 0.5870834
-0.055112571 0.26223725 0.58810008
-0.034658726 0.26216954 0.5869444
-0.025399709 0.26136106 0.5856154
-0.013987937 0.26154751 0.58750004
-0.0011219048 0.26028192 0.58900005
0.0048615877 0.2611545 0.58900005
0.015645716 0.26044223 0.58683336
0.024645397 0.26156986 0.58811104
0.03433029 0.26061851 0.58900011
0.044735953 0.26042217 0.58900005
0.054628141 0.26088604 0.58900017
0.065933488 0.2607998 0.58900017
0.075658455 0.26077276 0.58900005
0.080777153 0.26028192 0.58900005
0.094639994 0.26095998 0.588
0.037904762 -0.050413333 0.597
0.045555718 -0.051359713 0.59720004
0.053507403 -0.052556779 0.59376925
0.10863143 -0.051220953 0.59100002
0.11284167 -0.051186197 0.59387505
0.029640002 -0.041610479 0.59850001
0.035791535 -0.044629004 0.59515399
0.044137761 -0.046798252 0.59302503
0.051435716 -0.049187623 0.59025002
0.10900953 -0.048885718 0.59000003
0.11369959 -0.048735924 0.59307146
0.026720475 -0.034298856 0.59600013
0.032360006 -0.036576506 0.59200007
0.12804249 -0.036117334 0.59070009
0.13319387 -0.03294469 0.59185195
0.019396191 -0.022248572 0.59900004
0.024768505 -0.024976766 0.59384
0.030342858 -0.028657146 0.59000003
0.13629229 -0.025157338 0.59053344
0.14184082 -0.021832701 0.59533334
0.018511713 -0.013842477 0.59810007
0.023482362 -0.014875483 0.59298301
0.13810812 -0.015622936 0.59108329
0.14160973 -0.015489888 0.59295249
0.018873062 -0.005611157 0.59792864
0.023367951 -0.0049137259 0.59268624
0.13758191 -0.0039977143 0.59230006
0.14112055 -0.0055004084 0.59542865
0.019396191 0.00057047623 0.59900004
0.024695722 0.0046319165 0.59362161
0.030342858 0.0084285717 0.59000003
0.13594785 0.0043953592 0.59321809
0.14162257 0.0031525276 0.59738469
0.02640027 0.014471111 0.59550875
0.031894449 0.016325716 0.59100008
0.12889333 0.01857524 0.59100002
0.13413598 0.015106491 0.59490705
0.028323928 0.022490239 0.59781247
0.035061687 0.024897654 0.59364796
0.041317143 0.028107382 0.59025007
0.12562235 0.025818117 0.5925532
0.13261794 0.022567445 0.59645462
0.03795797 0.034006268 0.59632266
0.044038463 0.035948373 0.59263152
0.052502226 0.039190482 0.59066671
0.10865477 0.037720714 0.59112501
0.11481153 0.036622357 0.59155256
0.1245083 0.032539975 0.59469706
0.046933174 0.041353181 0.59616673
0.055465821 0.044527743 0.59578264
0.064605944 0.046509814 0.59253055
0.073738366 0.048717756 0.59227276
0.084635593 0.048445545 0.5920909
0.095308945 0.046727199 0.59250009
0.10493291 0.044579897 0.59436846
0.11326329 0.043001324 0.59646159
0.059329528 0.050201908 0.59900004
0.066233806 0.05182752 0.59799999
0.07466954 0.052257717 0.59726673
0.084536135 0.052448351 0.59757692
0.094700158 0.055947617 0.59366673
0.10211524 0.050201908 0.59900004
0.11742152 0.058224902 0.59357142
0.12058413 0.057847619 0.5916667
0.13771841 0.05937048 0.59183341
0.15171428 0.059561908 0.59000003
0.13827556 0.061163496 0.59100002
0.14071429 0.061914288 0.59100002
0.15426698 0.061743807 0.59116673
0.16616833 0.064125836 0.59193748
0.17563334 0.065880738 0.59330183
0.18283641 0.066548064 0.5949232
0.17796445 0.070960008 0.59133339
0.18469465 0.075074762 0.59263158
0.17905007 0.087035932 0.59014297
0.18460235 0.084851965 0.59166139
0.19241484 0.086659484 0.59629631
0.1856712 0.094559111 0.5924806
0.19312848 0.09467414 0.59755892
0.18494822 0.10442717 0.59235311
0.19260763 0.10029207 0.59833336
0.17747249 0.11701294 0.59068424
0.18408383 0.11571398 0.5926078
0.17665154 0.12523985 0.59119558
0.18452629 0.12474167 0.59450871
0.16435429 0.13733715 0.59100002
0.17638181 0.13484591 0.59168744
0.18408665 0.13486424 0.59579074
0.16752322 0.14656655 0.591088
0.17517865 0.14495808 0.5924775
0.18410413 0.14444867 0.59693617
-0.15243314 0.15617593 0.59508693
-0.14892045 0.15413758 0.59369242
-0.13189319 0.1543608 0.59224999
-0.12628935 0.15513235 0.59129035
-0.11368164 0.15648556 0.59028578
-0.10378775 0.15557104 0.59056669
-0.098466486 0.15529545 0.59080005
-0.083161913 0.15508573 0.59000009
-0.074907497 0.15581089 0.59214294
-0.064743757 0.15749866 0.59274995
-0.054745615 0.15783237 0.59281492
-0.045507062 0.1578608 0.59477144
-0.038344443 0.15819445 0.59500015
-0.011780953 0.15881525 0.59314287
-0.0074690483 0.15853763 0.59187502
0.0059661907 0.15942501 0.59625006
0.013511238 0.15916002 0.59600008
0.064057142 0.15958098 0.59000003
0.082038105 0.15845715 0.59000003
0.091028571 0.15733334 0.59000003
0.10514979 0.15623966 0.59127283
0.11658905 0.15487067 0.59025007
0.12569316 0.15609917 0.59019059
0.13256779 0.15681162 0.59072733
0.14729798 0.15625459 0.59048146
0.15514326 0.15574883 0.59174985
0.16490819 0.15478034 0.59298301
0.1745206 0.15451375 0.59461391
0.18220429 0.15197572 0.59691674
-0.15447937 0.1601581 0.59633338
-0.06099429 0.1603924 0.59300005
-0.053147048 0.16068153 0.59240001
-0.045079622 0.16145228 0.5954501
-0.011041906 0.16091393 0.59160006
-0.0060876193 0.16134796 0.59153342
0.0061389618 0.161771 0.59600002
0.014736527 0.16159755 0.59516132
0.033376057 0.16269469 0.5925715
0.048842479 0.16288134 0.59219998
0.053000633 0.16281644 0.59499997
0.065405719 0.16137905 0.59000009
0.079433337 0.16397096 0.59575003
0.083346039 0.1636612 0.59545469
0.093914472 0.16549829 0.59840006
0.10548273 0.16642712 0.59429729
0.1152669 0.16638987 0.59169704
0.1243559 0.16557387 0.59103853
0.13523363 0.16518025 0.59202319
0.14529847 0.16684067 0.59292322
0.15449496 0.16603908 0.59240752
0.16460235 0.16722585 0.59310013
0.17572053 0.16885166 0.59719998
0.18221572 0.16881701 0.59450001
0.16715853 0.17274001 0.59053582
0.17508999 0.17438067 0.59114766
0.18453982 0.17477833 0.59216648
0.15784155 0.18741515 0.59006262
0.16541074 0.18795712 0.59000009
0.17603357 0.18608041 0.59000009
0.1847488 0.18503191 0.59208465
0.15864445 0.19235873 0.59000009
0.16671568 0.19467145 0.59017396
0.17497157 0.19481726 0.59063882
0.18421642 0.19485235 0.59190595
0.1904 0.19096667 0.59500003
0.16718829 0.20098902 0.59000015
0.17575508 0.20162164 0.59046155
0.18457508 0.20381521 0.59086257
0.18542859 0.21015242 0.59000003
0.16942 0.22964571 0.59100002
0.17658088 0.22724053 0.59048003
0.18362863 0.22514224 0.59056097
0.1378485 0.23597246 0.5900386
0.14306809 0.23638165 0.59023082
0.15926287 0.23832956 0.59300005
0.16559136 0.23623671 0.59291095
0.17504199 0.23538038 0.59309882
0.18334909 0.23468244 0.5939303
0.095523812 0.24948573 0.59000003
0.11637088 0.24826698 0.5909999
0.12497555 0.24619968 0.5902034
0.13486673 0.24503478 0.59117776
0.14477807 0.24539118 0.59172046
0.15856507 0.24538207 0.59250003
0.16484974 0.24471474 0.59373569
0.17488332 0.24561733 0.59527963
0.18213294 0.24493615 0.5955556
-0.19326137 0.25879481 0.59605563
-0.18467394 0.25840333 0.59473342
-0.17592467 0.25763911 0.59450012
-0.16456491 0.25920552 0.59452629
-0.15852953 0.25883049 0.5916667
0.061809525 0.25960001 0.59000003
0.087143309 0.25714716 0.59014297
0.094594024 0.25594315 0.59058923
0.10448017 0.2566579 0.59091175
0.11514212 0.25530186 0.5920828
0.12512764 0.25532997 0.59181893
0.13486204 0.25507116 0.59237278
0.14466184 0.25505555 0.5932225
0.15850651 0.25472325 0.59459102
0.1647342 0.2552287 0.59549332
0.17489338 0.2549583 0.59622258
0.18163915 0.25412747 0.59693754
-0.19529952 0.26108059 0.59488237
-0.18351863 0.26033312 0.59057152
-0.17519167 0.26155636 0.59196883
-0.1659555 0.26046798 0.59184211
-0.15556851 0.26184994 0.59095836
-0.14641044 0.26308915 0.5914762
-0.11540174 0.26293334 0.59012508
-0.088256679 0.26252049 0.59025002
-0.073060386 0.26290342 0.59010011
-0.055441275 0.26372066 0.59000003
-0.045493167 0.26345763 0.59065211
-0.022590477 0.26543811 0.59300005
-0.017811049 0.26445067 0.59180003
-0.0038307696 0.26392221 0.59369236
0.00378303 0.26317197 0.59090912
0.014075714 0.26324767 0.59125006
0.035142746 0.26262501 0.59070593
0.044824556 0.26269361 0.59077781
0.056130163 0.26274541 0.59033346
0.062632389 0.26195684 0.59066671
0.071923815 0.26184762 0.59000003
0.085899688 0.26122758 0.59080011
0.09436924 0.26108137 0.59080946
0.10275977 0.26137179 0.59162503
0.11660603 0.26186118 0.5928421
0.1251324 0.26185337 0.59265399
0.13523534 0.26253876 0.59450001
0.14491366 0.26213908 0.59516674
