# .PCD v0.7 - Point Cloud Data file format
VERSION 0.7
FIELDS x y z
SIZE 4 4 4
TYPE F F F
COUNT 1 1 1
WIDTH 1372
HEIGHT 1
VIEWPOINT 0 0 0 1 0 0 0
POINTS 1372
DATA ascii
-0.25606412 0.14623865 0.43117091
-0.24490249 0.14563727 0.43592352
-0.23956858 0.1496781 0.43900001
-0.26442656 0.15750729 0.43797228
-0.24281657 0.15447275 0.43431255
-0.23941264 0.15326656 0.43587506
-0.26389623 0.16500643 0.43813992
-0.24158287 0.1602343 0.43140003
-0.26335934 0.17484851 0.43767262
-0.25862697 0.17620549 0.43822578
-0.26363379 0.18441483 0.43747193
-0.25599635 0.18559696 0.43803459
-0.24825525 0.18547417 0.43837509
-0.25378382 0.19065143 0.43900001
-0.25404587 0.027199315 0.44857147
-0.27293256 0.045290433 0.44900009
-0.27350518 0.052853715 0.44900003
-0.27341962 0.063287623 0.44900003
-0.2732031 0.075753339 0.44875005
-0.26384097 0.075688578 0.44900006
-0.27324858 0.089800008 0.44900003
-0.27184156 0.09534879 0.44742861
-0.26687059 0.097547151 0.44787928
-0.27075818 0.10457862 0.44503704
-0.2651256 0.10499481 0.44695809
-0.25917786 0.10694549 0.44900006
-0.27047989 0.11373275 0.44407696
-0.26506796 0.11492701 0.44497564
-0.25736368 0.1159018 0.44796205
-0.26442847 0.12496532 0.44272912
-0.25541389 0.12522341 0.44622865
-0.26265436 0.13334022 0.44005886
-0.25562644 0.13487966 0.44194645
-0.24416676 0.13715543 0.44744447
-0.23871836 0.13747953 0.44899997
-0.26237619 0.14294763 0.44000003
-0.25656077 0.14154603 0.44188577
-0.24265192 0.14457923 0.44502723
-0.23707618 0.14644495 0.4461557
-0.26158974 0.15787749 0.44088462
-0.25484282 0.15826827 0.44204754
-0.24250899 0.15775619 0.44516677
-0.23516329 0.15297942 0.44125271
-0.22984001 0.15196383 0.44200003
-0.26097357 0.16473229 0.44000003
-0.25491554 0.16498487 0.44094646
-0.24384983 0.16532956 0.44651729
-0.2377028 0.16575541 0.44786578
-0.25455114 0.17454809 0.44056487
-0.24446313 0.17537402 0.44461253
-0.23629366 0.1750035 0.44787413
-0.25393391 0.1828467 0.44034699
-0.24438749 0.18486407 0.44304371
-0.23595195 0.18520263 0.44728383
-0.25166702 0.19151652 0.44066668
-0.24482197 0.19201186 0.44275817
-0.23514901 0.1933167 0.44717118
-0.22869067 0.19456667 0.44900003
-0.26624164 -0.0012484356 0.45871437
-0.2629638 0.0054254159 0.45852852
-0.25956827 0.0087393653 0.4588334
-0.273747 0.018055771 0.45380571
-0.26447096 0.014868045 0.45710468
-0.25711548 0.015555722 0.45844445
-0.27359414 0.025426781 0.45163456
-0.26264092 0.021233827 0.45687991
-0.25503701 0.022913488 0.4570834
-0.24508628 0.028047442 0.45342863
-0.2356976 0.028602161 0.45613158
-0.22242275 0.028862298 0.45835301
-0.21817888 0.027370006 0.45840624
-0.27282521 0.03468857 0.45160764
-0.26308399 0.035825703 0.45392784
-0.25583929 0.035349615 0.45592967
-0.24264915 0.031280573 0.45240003
-0.23491094 0.032078128 0.45568576
-0.2228124 0.033851888 0.45845312
-0.2165475 0.036184881 0.45879617
-0.20877945 0.038555998 0.45900008
-0.27201167 0.045139086 0.4508045
-0.26405987 0.045802873 0.45409477
-0.25524944 0.044799294 0.45647204
-0.24859869 0.046025831 0.45782936
-0.22114858 0.040129524 0.45800003
-0.21320339 0.04043005 0.45811114
-0.20831431 0.040515918 0.45814288
-0.27282807 0.054345116 0.45102012
-0.26446322 0.054572672 0.45276523
-0.25526801 0.054901116 0.45585677
-0.24877144 0.055600587 0.45793024
-0.27130243 0.066999525 0.45210004
-0.264584 0.065039463 0.45222577
-0.25489101 0.064911008 0.4552578
-0.24789086 0.065370582 0.45842421
-0.27191383 0.075471304 0.45100009
-0.26489064 0.075128101 0.45231742
-0.25495303 0.074695475 0.45538294
-0.24791275 0.07522542 0.45784628
-0.27265343 0.083624035 0.45435143
-0.26451656 0.08343745 0.45456478
-0.2560479 0.083349831 0.45646241
-0.24820429 0.081011772 0.45647049
-0.27162543 0.092977375 0.45127788
-0.26310727 0.096368231 0.45126924
-0.25526205 0.09754473 0.45279425
-0.24782179 0.098391689 0.45729628
-0.26100001 0.10071429 0.45000002
-0.25480929 0.10483523 0.45124516
-0.24528688 0.10496356 0.45518437
-0.23710287 0.10743348 0.45843104
-0.25313136 0.11398195 0.45094821
-0.24481459 0.11456571 0.4544003
-0.2361369 0.11537229 0.4578622
-0.25158897 0.12072877 0.45080003
-0.24336445 0.12493853 0.45259809
-0.23520729 0.12513623 0.45660284
-0.22745086 0.12682326 0.45872208
-0.24355845 0.13190888 0.45110011
-0.23463546 0.13458666 0.45308673
-0.22560625 0.13568687 0.45676902
-0.21685465 0.13840103 0.45812121
-0.23320366 0.14441957 0.45144662
-0.22513473 0.14513136 0.45475495
-0.21542621 0.14524081 0.45768237
-0.23288019 0.15555875 0.45117575
-0.22501424 0.1549364 0.45363995
-0.2150469 0.15490955 0.45720705
-0.20834754 0.15799925 0.45870835
-0.23327559 0.16432813 0.45112509
-0.22520059 0.16531421 0.45450339
-0.21590395 0.16493417 0.45773295
-0.20857416 0.16114314 0.45871431
-0.23160876 0.17449798 0.45086554
-0.22488976 0.1750606 0.45355824
-0.21521799 0.17501222 0.45733809
-0.2090636 0.17726143 0.45900008
-0.23107979 0.18424007 0.45037141
-0.22508527 0.18513626 0.45227188
-0.2152368 0.18490982 0.45661396
-0.20893654 0.18574163 0.45889285
-0.23125716 0.19680002 0.45000002
-0.22441933 0.19374511 0.45188892
-0.21481661 0.19470906 0.45638296
-0.2083302 0.19526352 0.4586738
-0.23218675 0.20339595 0.4580335
-0.22788909 0.20544951 0.4583514
-0.21218915 0.20161028 0.45900008
-0.20755164 0.20143509 0.45880008
-0.27223727 -0.011043387 0.46588892
-0.26638287 -0.01064381 0.46566671
-0.27195638 -0.0078838104 0.46421745
-0.26425442 -0.0053872 0.46279678
-0.25567344 -0.0035419231 0.46579164
-0.24844827 -0.0013881481 0.46844447
-0.2609489 0.0018017989 0.46049997
-0.25494701 0.0046897233 0.46260121
-0.24520947 0.0051646335 0.46618274
-0.23786375 0.0067947814 0.46824005
-0.25264987 0.014295259 0.46093878
-0.24501504 0.015036765 0.46439454
-0.23548591 0.015390386 0.46751153
-0.22950476 0.018753018 0.46883333
-0.25152242 0.021651832 0.46052632
-0.24484433 0.023376785 0.46294713
-0.23496972 0.024485007 0.46614721
-0.22873774 0.025695471 0.46675012
-0.21797334 0.029480001 0.46900004
-0.25059047 0.037238099 0.46000001
-0.24467087 0.037344828 0.46164843
-0.23475993 0.037384048 0.463
-0.22732954 0.035598841 0.46113631
-0.21468742 0.033578645 0.46354824
-0.20501052 0.036252286 0.46492702
-0.19512281 0.036742311 0.46800002
-0.18893999 0.035286665 0.46900001
-0.24442048 0.044613875 0.46101704
-0.23483957 0.045124218 0.46360397
-0.22435313 0.044978913 0.46797955
-0.21975997 0.045162961 0.46900001
-0.20161937 0.040057145 0.46733338
-0.24416466 0.054813281 0.46130481
-0.23534651 0.054947902 0.46389681
-0.22528636 0.055236608 0.46676099
-0.21887968 0.056462198 0.46880767
-0.24332929 0.064582832 0.46047267
-0.23495139 0.06527523 0.46323004
-0.22474943 0.065070622 0.46688095
-0.21812002 0.064853951 0.46874467
-0.24330978 0.074850298 0.46105754
-0.23474096 0.075033113 0.46317062
-0.22481835 0.074819587 0.46609586
-0.21833386 0.074881822 0.46860874
-0.26110476 0.08849524 0.46000001
-0.25308934 0.086535864 0.46129271
-0.24471915 0.085299857 0.46240827
-0.23499388 0.084758043 0.46436238
-0.22533187 0.084422298 0.46750766
-0.21743634 0.083250687 0.46895549
-0.26022854 0.090685718 0.46000001
-0.25601792 0.090560012 0.46160004
-0.24432333 0.09445335 0.46330875
-0.23500127 0.094162427 0.46590543
-0.22785053 0.092778057 0.46814287
-0.21542072 0.097776711 0.46550012
-0.2418455 0.10124699 0.46133327
-0.23400894 0.10399152 0.46151385
-0.2246553 0.10505541 0.46443573
-0.21576208 0.10594937 0.46768162
-0.20895898 0.10865802 0.46863636
-0.23121537 0.11449828 0.46021262
-0.22473049 0.11475901 0.46211335
-0.21519923 0.11500139 0.46545604
-0.20663828 0.1152675 0.46809989
-0.23073016 0.12033015 0.46000001
-0.2240102 0.1241155 0.46059585
-0.21518032 0.12495269 0.46385285
-0.20517993 0.12506446 0.46746621
-0.19894536 0.12721068 0.46900001
-0.22229673 0.13240086 0.46024248
-0.21468489 0.13447936 0.46211973
-0.20501181 0.13519025 0.46543407
-0.19616482 0.13628094 0.468077
-0.18886743 0.13959773 0.46860003
-0.21096988 0.1437775 0.46004
-0.20504789 0.14511578 0.4620716
-0.19519356 0.14492761 0.46542475
-0.18608132 0.14569895 0.46830186
-0.21028571 0.15245715 0.46000001
-0.20429036 0.15463516 0.46123305
-0.19480152 0.15491499 0.46431261
-0.18510434 0.15501283 0.46750003
-0.17800638 0.15769273 0.46899995
-0.21148884 0.16588947 0.46009678
-0.20484018 0.16526522 0.46186852
-0.1950037 0.1650054 0.46461037
-0.18536663 0.16441776 0.46749139
-0.17930478 0.16220383 0.46900004
-0.21043174 0.17231748 0.46000001
-0.20478103 0.17488946 0.46221402
-0.1951993 0.17507555 0.46554002
-0.18616591 0.1750111 0.46821684
-0.2043632 0.18481386 0.46153435
-0.19485992 0.18498237 0.46511626
-0.18580768 0.18485844 0.46796596
-0.2036991 0.19479948 0.46131319
-0.19508338 0.19499899 0.46436942
-0.18572101 0.19517311 0.46765536
-0.22374856 0.20555685 0.46267018
-0.21562795 0.20677707 0.46427861
-0.20489357 0.20496334 0.46416357
-0.19453137 0.20433338 0.46556443
-0.18518376 0.20338549 0.46805415
-0.22528 0.21032 0.46200001
-0.20010667 0.21082668 0.46900001
-0.19782002 0.2113539 0.46760002
-0.25186235 -0.0065996004 0.47021067
-0.24460281 -0.0036381853 0.47272623
-0.2354091 -0.0030884424 0.47579122
-0.22954668 -0.0015942857 0.47775
-0.24305718 0 0.47000003
-0.23394227 0.0040021762 0.47164744
-0.22518592 0.0054625734 0.47500673
-0.21574673 0.0071088546 0.47775316
-0.20916638 0.0085123824 0.47883338
-0.23132952 0.012443811 0.47000018
-0.22467355 0.01532171 0.47132611
-0.21490492 0.015171449 0.47469002
-0.20610011 0.01575085 0.47781342
-0.19944648 0.018430097 0.47900006
-0.22385764 0.023772301 0.4715896
-0.21474652 0.025096908 0.47306812
-0.20500025 0.025217107 0.47654191
-0.19901036 0.02546755 0.47884619
-0.21164015 0.031377815 0.47223535
-0.20504867 0.032173976 0.47594339
-0.19736092 0.033031952 0.47814998
-0.18528768 0.03819577 0.47089577
-0.17676429 0.039036859 0.47384998
-0.22627144 0.047223814 0.47000003
-0.21464992 0.045484524 0.47147828
-0.20516682 0.045669358 0.47400001
-0.19501355 0.045169581 0.47476462
-0.18561734 0.042941768 0.47376481
-0.17450781 0.041921593 0.47515091
-0.16864975 0.043429419 0.47888893
-0.21448891 0.054607946 0.47097614
-0.20525075 0.055035386 0.47366643
-0.19511275 0.055091493 0.47660562
-0.18894377 0.055358812 0.47877786
-0.21335006 0.065211877 0.47087032
-0.20493972 0.065041155 0.47354338
-0.19505373 0.065072045 0.47678572
-0.18839726 0.064928107 0.47897625
-0.21347724 0.075033247 0.47055814
-0.20527914 0.074958593 0.47317129
-0.1950784 0.075104065 0.4765107
-0.18838269 0.073950872 0.47900003
-0.22164601 0.088777781 0.47000012
-0.21388595 0.085938014 0.47115561
-0.20504653 0.084799089 0.4735513
-0.19502597 0.084948309 0.47654781
-0.18826616 0.084682718 0.47875011
-0.22408178 0.093070894 0.47106451
-0.21495709 0.094571441 0.47482321
-0.20544145 0.093680732 0.47657973
-0.19541475 0.092446618 0.47816679
-0.18897693 0.091124043 0.47900006
-0.22425716 0.10026667 0.47000003
-0.21156399 0.10504518 0.47135723
-0.20465316 0.10676675 0.47227588
-0.19534017 0.10761594 0.47548667
-0.1870077 0.10891404 0.47792858
-0.20181726 0.11422744 0.47022399
-0.19483067 0.11487125 0.47241107
-0.18490794 0.11484661 0.47571966
-0.17826788 0.11619624 0.47824004
-0.20075715 0.12152858 0.47000003
-0.19466844 0.12474984 0.47126347
-0.18513213 0.12501189 0.47437745
-0.17546828 0.12531976 0.47750434
-0.16909461 0.12773335 0.47900006
-0.19282392 0.13337883 0.47067744
-0.18493767 0.13491152 0.47265297
-0.17503683 0.13518198 0.47628099
-0.16721608 0.13598208 0.47863799
-0.18259107 0.14249668 0.47124439
-0.17505719 0.14490034 0.47283876
-0.16571201 0.14557642 0.47623464
-0.15697514 0.14797968 0.47802386
-0.17449404 0.15427057 0.47093457
-0.16519132 0.15521368 0.47459158
-0.15563181 0.15542546 0.47764799
-0.14932637 0.15829811 0.47900006
-0.18164383 0.16812573 0.47000009
-0.17499651 0.16527632 0.47123608
-0.16506338 0.16477939 0.47390416
-0.15489331 0.16505353 0.47709978
-0.14919604 0.16492373 0.47900006
-0.18139437 0.17443001 0.47039995
-0.17513134 0.17515714 0.47273877
-0.16492991 0.17521405 0.47574094
-0.15622108 0.17385449 0.47830892
-0.1493181 0.17071429 0.47800002
-0.18109378 0.18456769 0.47020012
-0.17538495 0.18524458 0.47239861
-0.16528487 0.18502693 0.47558749
-0.15819299 0.18490711 0.47836676
-0.18125939 0.19410869 0.47000015
-0.17532374 0.19509681 0.47210422
-0.16506231 0.19510417 0.47525203
-0.15707333 0.19497491 0.47843766
-0.20157185 0.20873801 0.47033337
-0.19928002 0.20841146 0.47000003
-0.18884763 0.20903429 0.47100002
-0.17481214 0.20414537 0.47206786
-0.16493039 0.20481558 0.47588503
-0.15778749 0.20488121 0.47851682
-0.20178667 0.21109715 0.47000003
-0.19513081 0.21413724 0.47648486
-0.1851099 0.2133733 0.47771788
-0.17537019 0.21357748 0.47775012
-0.1660527 0.21041143 0.47683334
-0.23087874 -0.0036647622 0.48100004
-0.22499415 -0.0026558847 0.48178592
-0.21553771 -0.0018365711 0.48206681
-0.20809476 -0.0018457144 0.48450002
-0.22302882 0.00040011905 0.48025003
-0.21416016 0.0022332731 0.48139077
-0.20507127 0.0049202973 0.48352453
-0.19536473 0.0066429968 0.48674387
-0.18752764 0.009159049 0.48900005
-0.20266588 0.012125762 0.48052487
-0.19472757 0.014508201 0.48241144
-0.18538262 0.015136749 0.48657933
-0.17742668 0.01732091 0.48856837
-0.19389804 0.024525534 0.48052952
-0.18477605 0.024882589 0.48384887
-0.17544295 0.025316497 0.48773137
-0.16952001 0.029340001 0.48900002
-0.19247951 0.032539874 0.48031804
-0.18475936 0.033903301 0.48244444
-0.17468654 0.035039295 0.48572931
-0.16730325 0.036511548 0.48807034
-0.15883049 0.039478101 0.48200005
-0.18454051 0.047590245 0.48119235
-0.17562386 0.047259238 0.48323283
-0.16489445 0.044844698 0.48219559
-0.1554576 0.045273066 0.4827725
-0.14510395 0.046692807 0.48584417
-0.13808216 0.046486434 0.48809528
-0.18449819 0.054886483 0.48132044
-0.17538737 0.055109359 0.48395553
-0.16532631 0.05500444 0.48770678
-0.15614097 0.050961092 0.48771432
-0.14617597 0.050194044 0.486875
-0.18352818 0.064806089 0.48072311
-0.17515545 0.065207727 0.48370805
-0.16508199 0.0649468 0.48740113
-0.15927429 0.06985715 0.48900002
-0.18378618 0.075368345 0.48029751
-0.17525634 0.074942008 0.48301527
-0.16510522 0.075085126 0.48688
-0.15927431 0.074980006 0.48900005
-0.18338668 0.085115492 0.48013616
-0.17506734 0.085017376 0.48253745
-0.16531409 0.085096858 0.48682335
-0.15852754 0.086246245 0.48878798
-0.21028571 0.099657148 0.48000002
-0.20415685 0.098357856 0.48049998
-0.19418028 0.097116075 0.48106557
-0.18480332 0.09536878 0.48249087
-0.17499745 0.094877981 0.48453116
-0.16554543 0.094270505 0.48732996
-0.15857908 0.091323093 0.48884612
-0.21440001 0.10057143 0.48000002
-0.20306224 0.10100701 0.48228574
-0.19424662 0.10144826 0.48403347
-0.18483321 0.10364081 0.48581249
-0.17527558 0.10395921 0.48659679
-0.16518879 0.10947197 0.48477778
-0.17372908 0.11431713 0.48156986
-0.16503382 0.11500861 0.48404321
-0.15585931 0.11623922 0.48740619
-0.14812382 0.11902668 0.48883331
-0.17137142 0.12199999 0.48000002
-0.16461104 0.12484169 0.48185489
-0.15501395 0.12512931 0.48539293
-0.14644834 0.12527543 0.48818669
-0.163119 0.13419898 0.48051932
-0.15506093 0.13503051 0.48320442
-0.14514276 0.13502385 0.48728547
-0.13792908 0.13656805 0.48876938
-0.16258666 0.14239611 0.48007992
-0.15434569 0.14410228 0.48172057
-0.14501926 0.14506137 0.48517111
-0.13622387 0.1457566 0.48804244
-0.15118286 0.15301286 0.48057893
-0.14482793 0.15475225 0.48179647
-0.13503769 0.15492789 0.48539591
-0.12644523 0.15641066 0.48851356
-0.1443195 0.16484272 0.48105326
-0.134995 0.16494888 0.48379433
-0.12526606 0.16508725 0.48776338
-0.15337563 0.17713352 0.48010847
-0.1449571 0.17518108 0.48203865
-0.13497065 0.17519201 0.48532751
-0.12562957 0.17465317 0.48777747
-0.11922286 0.17184858 0.48900002
-0.15301466 0.18491925 0.48023146
-0.14472277 0.18508677 0.48286512
-0.13515103 0.18523683 0.48644358
-0.12726417 0.18397991 0.48825505
-0.15220691 0.19439133 0.48020324
-0.14486602 0.19476353 0.48258108
-0.13473997 0.19504341 0.48650756
-0.1274247 0.19451669 0.48886231
-0.15265906 0.20505868 0.48018396
-0.1448478 0.20467332 0.48275006
-0.13505758 0.20488022 0.48609081
-0.12811424 0.20501876 0.48836377
-0.17173456 0.21525629 0.48145455
-0.16513433 0.21693863 0.48617542
-0.15476546 0.2152542 0.4849211
-0.14557056 0.21433683 0.48562375
-0.1346917 0.21283558 0.48629168
-0.1286611 0.21224193 0.48871428
-0.11875714 0.21562573 0.48900002
-0.16020572 0.22074857 0.48900002
-0.1568381 0.2205981 0.48866671
-0.14670001 0.22074856 0.48900005
-0.19720003 -0.00093904766 0.49300003
-0.20146056 0.00084190484 0.49240002
-0.19496986 0.0025900789 0.49127078
-0.18507506 0.005560468 0.49268371
-0.17646506 0.0076479521 0.49605778
-0.16832136 0.0092304768 0.49885717
-0.18176405 0.010746906 0.49062499
-0.17396289 0.013860293 0.49182111
-0.16541576 0.015349218 0.49540302
-0.15705913 0.017760428 0.49826521
-0.17123652 0.021880796 0.49058336
-0.16514862 0.025157167 0.49233869
-0.15508051 0.025086626 0.4967702
-0.14828902 0.026989842 0.49881473
-0.16316748 0.034280345 0.49116439
-0.15507461 0.034931336 0.49451089
-0.14561112 0.035582323 0.49766359
-0.13972001 0.039919998 0.49900001
-0.1540924 0.041852176 0.49400005
-0.14479308 0.042586271 0.4968546
-0.13438979 0.047489267 0.49181813
-0.12528954 0.048317507 0.49458346
-0.11676382 0.048633214 0.49637493
-0.16063702 0.055274077 0.48999998
-0.15508085 0.056004256 0.49178663
-0.1448916 0.055491254 0.49527001
-0.13630463 0.054897796 0.49605635
-0.12541531 0.052175201 0.49213991
-0.11482711 0.053251293 0.49767834
-0.10930477 0.053634021 0.49900007
-0.16053332 0.0616 0.49000001
-0.15485711 0.06482774 0.49154866
-0.14506207 0.065118827 0.49547237
-0.13699575 0.064961389 0.4986667
-0.15443994 0.074843675 0.49116838
-0.14500597 0.075034253 0.49503145
-0.13628675 0.075312711 0.49869174
-0.15399958 0.084672436 0.49088445
-0.14512937 0.084961414 0.49445012
-0.13517299 0.085301451 0.49829769
-0.12926476 0.0860181 0.49900001
-0.16284211 0.098589465 0.48999986
-0.15468539 0.095313363 0.49086168
-0.14533852 0.09470883 0.49410063
-0.13518381 0.094686016 0.4974018
-0.12819546 0.094215952 0.49900004
-0.18330668 0.10397334 0.49000001
-0.1711469 0.10404715 0.491
-0.16523325 0.10331551 0.492365
-0.15460062 0.10333666 0.49444601
-0.14527209 0.10426775 0.49718958
-0.13759391 0.10283458 0.49819502
-0.1517303 0.11407396 0.49199998
-0.14503874 0.11611253 0.49217048
-0.13534006 0.11785495 0.49475396
-0.12596449 0.11799104 0.49899992
-0.14175317 0.12456619 0.49051148
-0.13487449 0.12526754 0.49309489
-0.12511934 0.12511168 0.49681941
-0.11809631 0.12725909 0.49885708
-0.13381395 0.13445173 0.49152231
-0.12515913 0.13495591 0.49496868
-0.11649734 0.13542491 0.49846175
-0.13226816 0.14351301 0.49084207
-0.12531891 0.14516343 0.49305221
-0.11501091 0.14499137 0.49699259
-0.10835429 0.14610717 0.49899989
-0.13066666 0.15073334 0.49000001
-0.12345555 0.15306914 0.49090141
-0.11497312 0.1548288 0.49345124
-0.10603625 0.15604796 0.49757907
-0.09829925 0.15817925 0.49900001
-0.070335239 0.15920475 0.49900001
-0.068909526 0.15920475 0.49900001
-0.12066667 0.16253334 0.49000004
-0.11499235 0.16489729 0.4914197
-0.10509854 0.16505988 0.49482256
-0.095702007 0.1652634 0.4984951
-0.070335239 0.16158095 0.49900001
-0.069004588 0.16139086 0.49900004
-0.12174655 0.17770566 0.49011758
-0.11488677 0.17489007 0.49100032
-0.10480975 0.17474954 0.49441653
-0.095022537 0.17461181 0.49793929
-0.085194126 0.17623107 0.49410835
-0.074730299 0.17634849 0.49711344
-0.068335243 0.17710157 0.49890909
-0.12289803 0.18569008 0.49039659
-0.1151088 0.18511507 0.49284676
-0.10515992 0.18502167 0.49644211
-0.095813632 0.18416741 0.49882948
-0.083406918 0.18250506 0.4951112
-0.076118566 0.18428604 0.49474418
-0.066751137 0.18208139 0.49878258
-0.12286969 0.19506228 0.49029979
-0.11495125 0.1950065 0.49326184
-0.10498998 0.19498074 0.49671772
-0.097491719 0.19516453 0.49900022
-0.0813796 0.19603904 0.49341181
-0.078517653 0.19438945 0.49274287
-0.12319498 0.20487066 0.49071813
-0.11501428 0.20502593 0.49290979
-0.10501744 0.20508814 0.49681199
-0.098158285 0.20456842 0.49900004
-0.082725324 0.20387439 0.49690005
-0.079308853 0.20122939 0.49400002
-0.16214922 0.21656111 0.49041662
-0.15523264 0.2180419 0.49081811
-0.14193004 0.21872383 0.49086675
-0.13467893 0.21946669 0.49300003
-0.12454551 0.21407819 0.49067107
-0.11474474 0.2138533 0.49322468
-0.10493434 0.21471219 0.49649996
-0.098206572 0.21567427 0.49899986
-0.16333334 0.22120002 0.49000001
-0.15253308 0.22099347 0.4904286
-0.14147145 0.22084597 0.49025002
-0.1351372 0.22119758 0.49348834
-0.12859525 0.22071621 0.49100003
-0.10402779 0.22055301 0.49766666
-0.096892662 0.22106959 0.49900004
-0.17272431 0.0063124625 0.50160867
-0.16541943 0.0067943814 0.50367796
-0.15604122 0.0093657142 0.5054546
-0.14930667 0.0096952384 0.509
-0.16175506 0.011376192 0.50190002
-0.15418363 0.013961011 0.50251812
-0.14560474 0.015854755 0.5050776
-0.13706787 0.018130001 0.50766665
-0.15047619 0.02 0.5
-0.14422987 0.0242275 0.50180984
-0.1351395 0.025071574 0.50530499
-0.12702984 0.027122805 0.50788248
-0.14184953 0.032211084 0.5007273
-0.13523349 0.035028726 0.50281888
-0.12528342 0.035184734 0.50697374
-0.11813666 0.039338097 0.50837499
-0.13485824 0.043329213 0.50227702
-0.1248759 0.043609899 0.50461185
-0.11724371 0.045128904 0.50734365
-0.13264471 0.057267435 0.50136662
-0.12484184 0.057650659 0.50396144
-0.11533846 0.058486894 0.50657696
-0.10498516 0.054323107 0.50183326
-0.095065363 0.05577429 0.50571257
-0.088263772 0.056970347 0.50794297
-0.13195361 0.065022588 0.50137955
-0.12480676 0.065014303 0.50355178
-0.11495322 0.065207154 0.50716364
-0.1095562 0.064958096 0.50900006
-0.091803811 0.060880005 0.5073334
-0.087397151 0.060840007 0.50700003
-0.13130313 0.074315861 0.50077158
-0.12494493 0.074990742 0.50290084
-0.11534914 0.07514438 0.50674802
-0.10955619 0.07529968 0.509
-0.13047619 0.079999998 0.5
-0.12518227 0.084866196 0.50191128
-0.1150253 0.085042618 0.50599235
-0.10779353 0.086076051 0.50855815
-0.13104762 0.098476186 0.5
-0.12448864 0.094963536 0.50189775
-0.11515377 0.094991781 0.50539559
-0.10696924 0.095270634 0.50827122
-0.14440709 0.10915048 0.50027275
-0.13392405 0.10594714 0.50159997
-0.1250971 0.10489387 0.50350988
-0.11505001 0.10443589 0.50618112
-0.10764065 0.10396447 0.50820005
-0.1410381 0.1109181 0.50200003
-0.13337864 0.1122177 0.50367641
-0.12499604 0.1132411 0.50546342
-0.11740732 0.11661856 0.50458068
-0.10629047 0.11927619 0.505
-0.12103461 0.12087556 0.50100005
-0.11435749 0.12410427 0.50214422
-0.10530087 0.12536262 0.50495744
-0.096838042 0.12731735 0.50781393
-0.086175248 0.12345239 0.50833333
-0.11189751 0.13448276 0.50044453
-0.10512935 0.13484827 0.50309539
-0.095241182 0.1349263 0.50655049
-0.088589422 0.13652276 0.50820702
-0.070840001 0.13975239 0.50600004
-0.10411686 0.14466947 0.50191808
-0.095214248 0.14474961 0.50495863
-0.08709842 0.14568526 0.50769448
-0.071456648 0.14335909 0.50456524
-0.068987884 0.14492555 0.50209093
-0.10273489 0.15279825 0.50063169
-0.094533786 0.15455118 0.50298321
-0.084928691 0.15521967 0.50629848
-0.075102776 0.15678898 0.50515491
-0.069746293 0.15573183 0.50160003
-0.091933168 0.16248599 0.50086367
-0.085209131 0.16485208 0.5025245
-0.075439408 0.1648692 0.50241184
-0.06861461 0.16743593 0.50714809
-0.084333651 0.17268139 0.50167769
-0.07530456 0.17196333 0.50210875
-0.065579951 0.17584226 0.50578648
-0.055723444 0.17904019 0.50536668
-0.048960954 0.17936191 0.509
-0.092646919 0.18799721 0.50058347
-0.08631362 0.18740132 0.50190485
-0.07291586 0.18857223 0.50723529
-0.062983498 0.18202081 0.50162494
-0.054574668 0.18254767 0.50433344
-0.046366174 0.18405363 0.50787926
-0.092729867 0.19468862 0.50094461
-0.086438008 0.19483265 0.5023666
-0.073972709 0.19525254 0.50709194
-0.068432376 0.19424704 0.50872982
-0.093396135 0.20531417 0.50117648
-0.086826526 0.20555635 0.50214511
-0.074879877 0.20527293 0.50689423
-0.069360822 0.20704447 0.50878567
-0.094180055 0.21505736 0.50106812
-0.085458472 0.21538748 0.50345093
-0.075136945 0.21511556 0.50693333
-0.068619825 0.21482743 0.50896865
-0.035484575 0.21445866 0.509
-0.094812192 0.22206631 0.50080007
-0.084483571 0.22216815 0.50460964
-0.075225256 0.22224714 0.50772339
-0.069030091 0.22046971 0.509
-0.14662893 0.0092857154 0.51072741
-0.14303635 0.012413588 0.51050001
-0.13467941 0.015385325 0.51170474
-0.1250696 0.017098565 0.51450694
-0.11759748 0.018192561 0.51695246
-0.13017143 0.020885717 0.51000005
-0.12375033 0.023565609 0.51123184
-0.11519929 0.025144389 0.51466662
-0.10604482 0.027191548 0.51725465
-0.12045716 0.033514291 0.51000005
-0.11494331 0.034693401 0.5119822
-0.10507541 0.034861185 0.51559073
-0.09759564 0.036438607 0.5180732
-0.11241341 0.044400476 0.51118869
-0.10509861 0.044989932 0.51352072
-0.095772497 0.045189463 0.51729906
-0.089960009 0.044980004 0.51900005
-0.11147144 0.052699998 0.51000005
-0.10459147 0.054011293 0.51285177
-0.095575325 0.05194677 0.51578051
-0.084636562 0.056022666 0.51146799
-0.075993635 0.058028273 0.51318181
-0.063626491 0.057799175 0.51741177
-0.058606859 0.058608383 0.51800007
-0.10495918 0.064821742 0.5116061
-0.095393382 0.065642372 0.51472694
-0.086323455 0.064822793 0.51584619
-0.07525067 0.061782531 0.51368576
-0.064920798 0.062615216 0.51767182
-0.058791429 0.061632857 0.51875007
-0.10506342 0.074981503 0.51136249
-0.095187537 0.075074598 0.51522708
-0.086617358 0.075444415 0.51762646
-0.061029047 0.073529214 0.51816678
-0.059039619 0.073306486 0.51660007
-0.10330273 0.0845735 0.51084727
-0.095109425 0.084868364 0.51424772
-0.085430391 0.085220538 0.51763904
-0.06430535 0.087114297 0.51765221
-0.10224681 0.094580561 0.51066661
-0.094883449 0.094957687 0.51373279
-0.085601456 0.09546864 0.51724434
-0.065120004 0.092253342 0.51800007
-0.11198509 0.10955493 0.51050007
-0.10372292 0.1053325 0.51103902
-0.094931126 0.10490395 0.51359266
-0.085563459 0.10467073 0.51719552
-0.12060382 0.11410414 0.51200008
-0.11498988 0.11326076 0.51142216
-0.10456781 0.11424676 0.51422071
-0.095383003 0.11389127 0.51655269
-0.08712744 0.11217383 0.51790321
-0.093197927 0.12614729 0.51086104
-0.08603587 0.12773095 0.51215547
-0.074889615 0.12860151 0.5173685
-0.069200002 0.1285143 0.51900005
-0.09072572 0.13058034 0.51033342
-0.084072791 0.1344001 0.51178145
-0.075055093 0.13492066 0.51498145
-0.067128181 0.13613684 0.51767766
-0.082697861 0.14414889 0.51066661
-0.076256685 0.14457014 0.51146692
-0.064808406 0.14496458 0.51699972
-0.058572859 0.14828573 0.51900005
-0.080628581 0.15057145 0.51000005
-0.074696481 0.15356769 0.51141167
-0.06502004 0.15496129 0.51478326
-0.056994524 0.15610649 0.51775861
-0.034061909 0.15204382 0.51833338
-0.070148572 0.16124381 0.5115
-0.064170048 0.16439489 0.51153708
-0.055156279 0.16503547 0.51557243
-0.047634494 0.16728579 0.51792866
-0.035438489 0.16650844 0.51609093
-0.062360786 0.1736192 0.51052177
-0.054801267 0.17477444 0.51305908
-0.045221772 0.1756372 0.5168907
-0.037456907 0.17472337 0.51576793
-0.065402068 0.18896365 0.51077276
-0.05556852 0.1894528 0.51394117
-0.042724386 0.18297604 0.51216322
-0.035171933 0.18501231 0.51216072
-0.027104074 0.18594666 0.51479256
-0.063453674 0.19514921 0.51147294
-0.054963771 0.19528364 0.51483005
-0.044869918 0.19593154 0.51783353
-0.035666626 0.19468437 0.51358032
-0.028141713 0.19073831 0.51300001
-0.064728737 0.20469911 0.5111686
-0.054974221 0.20482874 0.51470613
-0.044553332 0.20522554 0.51770604
-0.037468482 0.2048272 0.51395458
-0.083204158 0.21326549 0.51445454
-0.063771382 0.21503773 0.51140755
-0.054900799 0.21498197 0.51551759
-0.045032322 0.21503599 0.51752603
-0.038234215 0.21462943 0.51265395
-0.074042551 0.22797525 0.51366675
-0.064635172 0.22335643 0.51240385
-0.055010721 0.22321293 0.51518661
-0.045587301 0.22271809 0.51770836
-0.03882286 0.22016001 0.51600003
-0.075432852 0.23072526 0.51600003
-0.13099049 -0.060457144 0.52900004
-0.12462363 -0.06253238 0.52879155
-0.11516479 -0.064200118 0.52856457
-0.10563011 -0.063943312 0.52853835
-0.097501256 -0.062351964 0.52892613
-0.13246009 -0.054042283 0.52894449
-0.12505749 -0.054744724 0.52733016
-0.11470612 -0.054599483 0.52594066
-0.10460308 -0.054557312 0.52552056
-0.095025569 -0.054607268 0.52734035
-0.086923234 -0.054102287 0.52891207
-0.14005905 -0.041312385 0.52900004
-0.13471606 -0.044676393 0.5281477
-0.124865 -0.044689234 0.52574003
-0.11496121 -0.044862736 0.52525848
-0.10463184 -0.044415485 0.52486438
-0.094720155 -0.044605732 0.52624047
-0.085835874 -0.044644646 0.52840459
-0.14005905 -0.037785716 0.52900004
-0.13443343 -0.035124455 0.52821237
-0.12530077 -0.034618802 0.52606791
-0.1149551 -0.035114389 0.52492541
-0.10492182 -0.035051379 0.52494472
-0.094694436 -0.034851503 0.52554101
-0.086366892 -0.034946851 0.52890509
-0.13299134 -0.024514398 0.52877992
-0.12517183 -0.024516685 0.52697945
-0.11501215 -0.025024192 0.52558446
-0.10458432 -0.024981165 0.52563357
-0.094960928 -0.024898866 0.5269531
-0.087779544 -0.02512037 0.52891296
-0.13099049 -0.019144762 0.52900004
-0.12436056 -0.016102023 0.52890146
-0.11517078 -0.014630087 0.52819175
-0.10506611 -0.014574192 0.52784997
-0.09562315 -0.015202378 0.52883691
-0.088586524 -0.017885238 0.52900016
-0.11242151 -0.0087806825 0.52900004
-0.10767131 -0.0087806806 0.52900004
-0.11201778 0.018917143 0.5227499
-0.10770514 0.019410476 0.5226
-0.095318109 0.019961907 0.52400005
-0.11125829 0.021022478 0.52060002
-0.10353337 0.02344943 0.52142113
-0.095066942 0.025483616 0.52380013
-0.086947322 0.027147733 0.52677983
-0.093518652 0.034373254 0.52079719
-0.084820509 0.035028074 0.52420849
-0.075806126 0.035677675 0.52797252
-0.067665502 0.038522057 0.52900016
-0.09091115 0.044347677 0.5201177
-0.084793188 0.045054078 0.52224749
-0.075065888 0.044966821 0.52583051
-0.066745065 0.044746194 0.52743542
-0.090133339 0.050514288 0.52000004
-0.084210008 0.052664876 0.52087754
-0.074380092 0.053954408 0.5241161
-0.066401459 0.053942338 0.52375931
-0.055643812 0.05961905 0.52166671
-0.082929648 0.066901654 0.52055568
-0.075011268 0.067306869 0.52264404
-0.064387009 0.067975409 0.5216471
-0.054790594 0.064983457 0.5240922
-0.044874329 0.065600879 0.52654451
-0.037952535 0.066720538 0.52880013
-0.081944577 0.07413739 0.52052516
-0.074904986 0.074996062 0.52299976
-0.065786324 0.075145207 0.52290112
-0.058296971 0.076521084 0.52857161
-0.042320002 0.070533335 0.52900004
-0.037785716 0.070533335 0.52900004
-0.08060436 0.083646677 0.52014291
-0.075084865 0.085035667 0.52215976
-0.065439194 0.084850751 0.52488881
-0.057722185 0.084759943 0.52899998
-0.081264079 0.093014732 0.52000016
-0.074950233 0.094805576 0.52118993
-0.064824067 0.095050655 0.52465284
-0.05712077 0.094958492 0.52818507
-0.080802009 0.10639802 0.5200001
-0.074924253 0.10469104 0.52070302
-0.064433664 0.10466858 0.52486622
-0.05638789 0.10559679 0.52766168
-0.025142856 0.10962286 0.528
-0.092465587 0.11832873 0.52078575
-0.084024839 0.11631971 0.52192539
-0.074789934 0.11481649 0.52393609
-0.064900771 0.11485536 0.52710128
-0.056682765 0.11324863 0.5287143
-0.024855513 0.11105958 0.528
-0.090826675 0.12076954 0.52400005
-0.082819059 0.12202109 0.52478582
-0.076292515 0.12294678 0.52481633
-0.064873785 0.12583521 0.52663922
-0.057900008 0.12840001 0.52500004
-0.063218087 0.13370353 0.52108485
-0.055094227 0.13499746 0.52374184
-0.045945581 0.13727172 0.52793878
-0.038961276 0.13871557 0.52900004
-0.060419053 0.1416381 0.5200001
-0.05474402 0.14484003 0.52128714
-0.045059156 0.14484839 0.52579135
-0.038622085 0.14515784 0.52790916
-0.052992936 0.15418671 0.52112967
-0.045199428 0.15474024 0.52422714
-0.035538957 0.15584926 0.52434176
-0.028035518 0.15736641 0.52900016
-0.051025715 0.16149905 0.5201667
-0.044294763 0.16415118 0.52214593
-0.03452044 0.1642378 0.52539027
-0.026017334 0.16595307 0.52848589
-0.042491432 0.17194669 0.52000004
-0.032728638 0.17583373 0.52457768
-0.025027666 0.17480958 0.52650023
-0.017662974 0.17594807 0.5290001
-0.033202752 0.18205455 0.52292585
-0.024199024 0.18325669 0.5248751
-0.015525789 0.18530519 0.52857679
-0.04605715 0.1961143 0.52000004
-0.031400006 0.19820002 0.52500004
-0.023943275 0.19591555 0.52789587
-0.016582903 0.19376984 0.52888453
-0.0069273817 0.1976193 0.52900004
-0.045503642 0.2048538 0.52000022
-0.032718144 0.20563708 0.52604991
-0.025060425 0.20491976 0.52702695
-0.018338671 0.20646115 0.52900022
-0.045958102 0.21176381 0.52000004
-0.033647276 0.21454754 0.52527416
-0.025046451 0.21497531 0.52673
-0.015306742 0.215113 0.52788234
-0.050611429 0.22874478 0.52100003
-0.044255584 0.22756743 0.52054554
-0.034721103 0.22533342 0.52480716
-0.024954919 0.22508222 0.52709836
-0.018943237 0.2239937 0.5290001
-0.074143268 0.23193276 0.52171433
-0.064899527 0.23295984 0.52391124
-0.054765638 0.23417915 0.52709097
-0.045422614 0.2329895 0.5248695
-0.03400895 0.23179337 0.52569693
-0.024755679 0.23275284 0.52771157
-0.019144762 0.2317524 0.52900004
-0.12114667 -0.080080003 0.53900003
-0.11429524 -0.080810159 0.5381667
-0.10472 -0.080080003 0.53900003
-0.14065334 -0.070840001 0.53900003
-0.13386324 -0.072811626 0.53735149
-0.1249564 -0.07441406 0.5357061
-0.1149128 -0.075373627 0.53449404
-0.10487305 -0.074810192 0.534253
-0.095324188 -0.074003108 0.53583747
-0.086076856 -0.072228312 0.53713518
-0.079931438 -0.070708573 0.53800005
-0.15082668 -0.061562546 0.53866673
-0.14435308 -0.063993156 0.53657812
-0.13511996 -0.065059133 0.53297353
-0.1262574 -0.067224883 0.53189188
-0.11529388 -0.069406264 0.53028584
-0.10344107 -0.06861078 0.53039134
-0.094021603 -0.065629356 0.53136784
-0.08500497 -0.064994827 0.53373915
-0.076526314 -0.063667938 0.53640985
-0.15176238 -0.053956844 0.53796554
-0.1448205 -0.055134267 0.53414667
-0.13703269 -0.055526331 0.53055793
-0.091866672 -0.059561908 0.53000009
-0.082619801 -0.056215022 0.53127462
-0.074918948 -0.054869976 0.53469908
-0.068069614 -0.052183807 0.53813642
-0.15306109 -0.045281567 0.53717655
-0.14483318 -0.045178607 0.53264576
-0.13931429 -0.048961908 0.53000003
-0.081140473 -0.045680955 0.53000009
-0.075125977 -0.045112588 0.53272492
-0.067794085 -0.045205485 0.53792852
-0.15282331 -0.035418954 0.53694731
-0.14539589 -0.034889374 0.53308165
-0.13851087 -0.031520572 0.5304001
-0.081771433 -0.034284987 0.52999997
-0.075120747 -0.035025906 0.53301841
-0.067910857 -0.035015691 0.53730959
-0.15169178 -0.025853133 0.53757155
-0.14489125 -0.024908643 0.53379291
-0.13787743 -0.025086742 0.53064102
-0.082784697 -0.024401123 0.53138113
-0.074875593 -0.024985652 0.53447545
-0.068141691 -0.026402395 0.5378387
-0.15092 -0.017966669 0.53900003
-0.14469488 -0.015039914 0.53592861
-0.13483016 -0.014582403 0.53188652
-0.12651767 -0.011746096 0.53009999
-0.11811429 -0.010095239 0.53000003
-0.092214398 -0.011119683 0.53072226
-0.084569193 -0.014429079 0.53311723
-0.075705796 -0.015199232 0.53664351
-0.14272621 -0.0068052378 0.53796428
-0.13482673 -0.0051421667 0.53506249
-0.12484258 -0.005090408 0.53260499
-0.11506555 -0.0047677858 0.53171283
-0.10467791 -0.0046997652 0.53153634
-0.094980843 -0.0051025497 0.53301066
-0.085283533 -0.0053480109 0.53559995
-0.078681685 -0.0072884033 0.53770596
-0.13242042 0.0013105822 0.53822219
-0.12445248 0.0023997074 0.53621161
-0.11489393 0.0042635743 0.53579557
-0.10528543 0.00362969 0.53575003
-0.095356829 0.0023625831 0.53715259
-0.087908573 0.00093264075 0.53836375
-0.083149098 0.024454311 0.53193033
-0.075446129 0.02769457 0.53295666
-0.066223234 0.028989047 0.53779995
-0.072692946 0.032109227 0.53082758
-0.064605713 0.03470559 0.53412759
-0.057361476 0.036922593 0.53725004
-0.061879322 0.04523211 0.53423822
-0.054829109 0.045322224 0.53554553
-0.048049409 0.047279529 0.53887498
-0.015913334 0.049280003 0.53900003
-0.061928801 0.053327624 0.53257149
-0.054895513 0.055130996 0.53353643
-0.046172589 0.055282094 0.5380556
-0.016654816 0.051219262 0.53900003
-0.052638277 0.065606415 0.53145462
-0.044785749 0.061915636 0.53687096
-0.033266623 0.066903189 0.53094882
-0.02426031 0.066341609 0.5344196
-0.018227981 0.065041915 0.53472406
-0.063600004 0.079752386 0.53000003
-0.054183669 0.074913815 0.53129333
-0.045464855 0.075605981 0.53467059
-0.036922943 0.075164527 0.53587502
-0.024625378 0.074707165 0.53636777
-0.018694524 0.071344294 0.53412497
-0.064449936 0.084494844 0.53103572
-0.053104728 0.085435487 0.53125882
-0.045359202 0.084988683 0.53465664
-0.036233101 0.08541546 0.53820831
-0.025998883 0.084616825 0.53702933
-0.052424978 0.095187902 0.53113347
-0.04523968 0.095103867 0.53431702
-0.035474829 0.094868511 0.53750986
-0.028554862 0.093962044 0.53796667
-0.052106932 0.10393349 0.53091657
-0.045321882 0.10513332 0.53376561
-0.035213057 0.10481399 0.53661579
-0.029175717 0.10493286 0.53745002
-0.053570908 0.11636396 0.5313127
-0.04519454 0.11489236 0.53429365
-0.035449944 0.11488228 0.53773081
-0.028789811 0.11489382 0.53730428
-0.071916699 0.12646165 0.53494734
-0.063923761 0.12431965 0.53074294
-0.055205397 0.12335464 0.53404921
-0.045982663 0.12226315 0.5368461
-0.035625335 0.120736 0.53900003
-0.071866669 0.13038668 0.53900003
-0.069813333 0.13038667 0.53900003
-0.050980955 0.1312381 0.53000003
-0.044664811 0.13417098 0.53066683
-0.03477551 0.13664442 0.53418428
-0.025470475 0.13722491 0.53721523
-0.019294096 0.13834287 0.53880006
-0.033903968 0.145096 0.53184825
-0.024993146 0.14512751 0.53411442
-0.016294746 0.14633398 0.53803217
-0.03350617 0.15238626 0.53158826
-0.024160219 0.15447058 0.53225905
-0.015114846 0.15512453 0.53616154
-0.0080875074 0.15757908 0.53864706
-0.022208672 0.16313922 0.5312894
-0.014699579 0.16504069 0.5340749
-0.0066331923 0.16348512 0.5385105
-0.013183719 0.17425245 0.53138369
-0.0071038473 0.17548425 0.53601915
0.00051333336 0.17966667 0.53900003
-0.011289049 0.18324749 0.5307917
-0.0065117348 0.18488759 0.53392881
0.00089833338 0.18184836 0.53900003
-0.012609719 0.19642013 0.53133345
-0.0063622715 0.19370617 0.53303874
-0.013839711 0.20458584 0.53146225
-0.0091200005 0.20216 0.53200001
-0.015360264 0.21438661 0.53031027
-0.016496688 0.22516201 0.53026199
-0.04406162 0.23673871 0.53141177
-0.035695393 0.23772801 0.53299999
-0.024306035 0.23798415 0.5316667
-0.016978357 0.23118095 0.53000009
-0.14295319 -0.082499959 0.54628569
-0.13546765 -0.082749359 0.54458976
-0.12514491 -0.084444277 0.54389995
-0.11510468 -0.084037177 0.54140824
-0.10475786 -0.083657928 0.54291093
-0.094767995 -0.083168879 0.54450899
-0.085855901 -0.083319522 0.54677069
-0.077429056 -0.081081912 0.54750001
-0.15241188 -0.072964869 0.54722226
-0.14464948 -0.074594297 0.54272294
-0.13630636 -0.077052385 0.54123825
-0.092499688 -0.0784408 0.54008335
-0.084522247 -0.077030152 0.5430001
-0.075630993 -0.074312322 0.54467601
-0.068401523 -0.071630478 0.54660004
-0.1612265 -0.062155426 0.54750001
-0.15499859 -0.064821869 0.5440346
-0.14740573 -0.068107814 0.5406667
-0.072942719 -0.066816613 0.54115403
-0.065895908 -0.064343743 0.54517335
-0.059605718 -0.061174288 0.54900002
-0.16257423 -0.055082142 0.54649997
-0.15655069 -0.055217274 0.5417335
-0.064285681 -0.055664331 0.54202443
-0.058130421 -0.054450288 0.54726666
-0.16332674 -0.044875447 0.54496443
-0.15778513 -0.044312645 0.54045463
-0.062801771 -0.044821102 0.54182565
-0.057608534 -0.044914454 0.54669565
-0.17084357 -0.032417145 0.54900002
-0.16474009 -0.034697395 0.54607999
-0.15755266 -0.03490036 0.54110348
-0.062825494 -0.034840479 0.54150867
-0.057700824 -0.035024568 0.5468958
-0.17045145 -0.029280001 0.54900002
-0.16352876 -0.026020642 0.5464884
-0.15652801 -0.024735501 0.54111791
-0.063717455 -0.024652164 0.54223388
-0.058070783 -0.025332414 0.5475806
-0.16171294 -0.016637873 0.54794109
-0.15498948 -0.014742938 0.54223639
-0.14914286 -0.0108 0.54000002
-0.071683526 -0.012342857 0.54000002
-0.065301642 -0.015083124 0.54350019
-0.15420702 -0.0058910251 0.54536545
-0.14634213 -0.0041178185 0.5407294
-0.13988572 -0.0010285715 0.54000002
-0.081385709 -0.0016714286 0.54000002
-0.074221283 -0.0048129424 0.54192322
-0.066814438 -0.0059806053 0.54672736
-0.15106753 0.0018543915 0.54655558
-0.14448924 0.004257482 0.54449314
-0.13558443 0.0053784396 0.54141694
-0.12551263 0.007486667 0.54022521
-0.11468572 0.0092571443 0.54000002
-0.10388573 0.008499248 0.54000002
-0.094664395 0.0074203038 0.54061383
-0.084689207 0.0051965448 0.54231882
-0.075978257 0.0034251055 0.54552776
-0.069412857 0.00052238099 0.54800004
-0.14176625 0.011687794 0.54872733
-0.13483757 0.012434788 0.54611915
-0.12444601 0.013417297 0.54376668
-0.11500282 0.014501676 0.54394239
-0.10483865 0.015087661 0.54421216
-0.095252849 0.014464483 0.54552269
-0.086141452 0.012424669 0.54682922
-0.11946 0.020685716 0.54300004
-0.10463642 0.02082381 0.54662502
-0.097251438 0.020914286 0.54900002
-0.070971429 0.026228573 0.54000002
-0.065393105 0.027186126 0.54004765
-0.055914044 0.02851183 0.54403222
-0.048537146 0.029226668 0.54800004
-0.037577145 0.029226668 0.54800004
-0.060685717 0.030857144 0.54000002
-0.053661548 0.033811022 0.54181552
-0.045289427 0.035299283 0.54410225
-0.036272164 0.036793161 0.54742312
-0.028234286 0.039737146 0.54900002
-0.051634289 0.040320005 0.54000002
-0.044131059 0.044278499 0.54048854
-0.034731675 0.045102134 0.54438972
-0.025313389 0.045760412 0.54698777
-0.017275808 0.047386728 0.54289997
-0.041280005 0.054205719 0.54000008
-0.03473543 0.055136412 0.54219574
-0.025119448 0.05533516 0.54551166
-0.018457355 0.055187296 0.54277772
-0.040628575 0.061200004 0.54000002
-0.034751359 0.062601253 0.54051232
-0.026241483 0.062503032 0.54388887
-0.018632859 0.060560003 0.54350007
-0.034647718 0.075981677 0.54010761
-0.029257145 0.077485718 0.54000002
-0.016042879 0.076526158 0.54746932
-0.032543998 0.082985133 0.53999996
-0.023187142 0.084012851 0.54449999
-0.016381003 0.084699348 0.54673344
-0.031885713 0.091542862 0.54000008
-0.021222746 0.095562361 0.54429412
-0.016268525 0.094948828 0.54613137
-0.022208927 0.10577703 0.54414284
-0.015999973 0.10510327 0.54646766
-0.023234848 0.11658813 0.5438627
-0.016895693 0.11509605 0.54683876
-0.076535366 0.12803887 0.54006666
-0.06009905 0.12952381 0.54400003
-0.057330348 0.12898993 0.54300004
-0.042805459 0.12582323 0.54037935
-0.034470357 0.12514342 0.54022104
-0.025351537 0.1247297 0.54360753
-0.01770605 0.12356213 0.54782349
-0.074970081 0.13134164 0.5402143
-0.066628575 0.13151756 0.54185718
-0.056662519 0.13092159 0.54354554
-0.032400001 0.13062857 0.54000002
-0.023739396 0.13384348 0.54209089
-0.015464299 0.13785173 0.54021221
-0.0093257148 0.13988572 0.54400003
-0.012719368 0.14318733 0.54045254
-0.0076323287 0.14627142 0.54230553
-0.010285715 0.15222858 0.54000002
-0.0070935967 0.15336357 0.54000002
-0.0064800004 0.16889144 0.54000002
-0.0053142859 0.17365715 0.54000002
-0.0034285719 0.18205714 0.54000008
-0.15181714 -0.08065334 0.55350006
-0.14920609 -0.081136763 0.55320001
-0.16215979 -0.073069207 0.55683339
-0.15581308 -0.075691208 0.55302948
-0.14930286 -0.078857146 0.55200005
-0.0720606 -0.077459522 0.55281252
-0.065356828 -0.073926479 0.55584437
-0.058753528 -0.071633138 0.55880004
-0.17154555 -0.061433911 0.55800003
-0.16472554 -0.064767562 0.55197507
-0.15885809 -0.068681903 0.55050004
-0.061936412 -0.067714103 0.55338103
-0.056690406 -0.063858137 0.55513471
-0.17295279 -0.054908514 0.55693102
-0.16783305 -0.055161286 0.55180645
-0.0537806 -0.054826051 0.55392981
-0.049444288 -0.051039524 0.55825007
-0.17304814 -0.045651268 0.55528951
-0.16894944 -0.045847449 0.5515455
-0.05277383 -0.04491429 0.55288237
-0.048297338 -0.044636395 0.55794734
-0.17254487 -0.037081547 0.55318755
-0.1693438 -0.038798094 0.55050004
-0.05301303 -0.035094649 0.55286562
-0.048455872 -0.03602501 0.55790001
-0.17106667 -0.025377143 0.55176926
-0.16784833 -0.023907304 0.55075002
-0.053633399 -0.024658317 0.55333859
-0.049333192 -0.026299929 0.55746168
-0.17189102 -0.014292733 0.55705267
-0.16620183 -0.014864454 0.5519287
-0.060456194 -0.011566667 0.55199999
-0.056542046 -0.015356915 0.55428195
-0.17036191 -0.0095828576 0.55900002
-0.16403794 -0.0055338466 0.55353862
-0.15832913 -0.0029231289 0.55100006
-0.062399596 -0.0041545513 0.55202335
-0.05789512 -0.0063654846 0.55727285
-0.161617 0.0010552381 0.55390906
-0.15524653 0.0049846061 0.55345893
-0.14828858 0.008744128 0.55083334
-0.073236257 0.007427115 0.55232352
-0.065627843 0.0041833101 0.55510008
-0.059200641 0.00035428576 0.5583334
-0.15296119 0.01097262 0.55524999
-0.14577189 0.011933572 0.55081254
-0.092280529 0.019161733 0.55054551
-0.084069118 0.016527912 0.55278856
-0.075865395 0.013381609 0.55488521
-0.068551905 0.010628572 0.55800003
-0.092458934 0.021628194 0.55120015
-0.08608564 0.02108922 0.55584002
-0.034782857 0.029514669 0.55340004
-0.032987911 0.033602316 0.55219537
-0.025189556 0.03588511 0.55376953
-0.015572715 0.037126191 0.55730003
-0.021872384 0.041298255 0.55125004
-0.014374506 0.044057645 0.55576694
-0.0084680757 0.046321664 0.55878258
-0.013254167 0.055842247 0.55318183
-0.0070435321 0.055004608 0.55752724
-0.013520536 0.064903624 0.55142194
-0.006363079 0.064966135 0.55605888
-0.01250116 0.073374212 0.55072981
-0.0065608257 0.075027026 0.55610019
-0.011303379 0.085475065 0.55090916
-0.0065836911 0.084751464 0.55500007
-0.011171604 0.095060959 0.5514546
-0.0069151483 0.09527164 0.55483025
-0.011063195 0.10451831 0.55164713
-0.0072818673 0.10450195 0.55418015
-0.011862732 0.11475638 0.55174196
-0.0077954899 0.11492366 0.55568427
-0.013765855 0.12570098 0.5515455
-0.0085889949 0.12342604 0.55594444
-0.01729016 0.13081713 0.55016667
-0.21147834 -0.11393547 0.56900001
-0.20809142 -0.1143419 0.56900001
-0.19259565 -0.072333604 0.56880963
-0.18811837 -0.071686253 0.56900012
-0.16480297 -0.075112864 0.56055003
-0.15946667 -0.078933328 0.56
-0.056533333 -0.070933335 0.56
-0.20127574 -0.064515896 0.56700003
-0.19484057 -0.064710565 0.56789076
-0.18527462 -0.064222291 0.56574661
-0.17631234 -0.063714802 0.56400007
-0.16693333 -0.069333337 0.56
-0.053229939 -0.064780004 0.56214291
-0.048922855 -0.060213335 0.56449997
-0.20032857 -0.059015241 0.56850004
-0.19442196 -0.055345774 0.56704855
-0.18481955 -0.054781515 0.56287837
-0.17786083 -0.05504477 0.56111771
-0.050806351 -0.057455029 0.56088895
-0.047926474 -0.054092508 0.56164002
-0.19347708 -0.046583321 0.56805414
-0.18522142 -0.045227893 0.56402844
-0.17834815 -0.04414722 0.5613929
-0.043842122 -0.043663751 0.56416672
-0.19075046 -0.039017145 0.56900001
-0.18438353 -0.035455883 0.56680006
-0.17869058 -0.03541239 0.56429172
-0.04436595 -0.034624316 0.564695
-0.050518733 -0.020634286 0.56033337
-0.046234712 -0.025335208 0.56360012
-0.051668517 -0.014287225 0.5623104
-0.047898922 -0.016227957 0.5657419
-0.17226666 -0.0095999995 0.56
-0.054044761 -0.0053075398 0.56404167
-0.049855236 -0.0097542861 0.56900001
-0.16250478 0.0079246759 0.56500006
-0.062104259 0.0076009929 0.56304353
-0.057350527 0.0034347742 0.56594884
-0.073979035 0.017512076 0.56316131
-0.066234194 0.013501291 0.56537789
-0.08165203 0.023811931 0.56405258
-0.076809093 0.023293724 0.56634092
-0.010666667 0.037866667 0.56
-0.008655238 0.038415451 0.56022221
-0.0049624131 0.044589929 0.56120002
-0.0028729828 0.055994097 0.56194741
-0.0017112384 0.065296136 0.5619334
0.00043047621 0.066914283 0.56479996
-0.0020029373 0.074867301 0.56116676
0.00035825395 0.075022861 0.56400007
-0.0017804235 0.084357254 0.56100005
0 0.08568953 0.56233335
-0.0037414287 0.092492625 0.56137502
-0.222563 -0.11248276 0.57506257
-0.21516283 -0.11199363 0.57186848
-0.20581339 -0.11188805 0.57247227
-0.19973142 -0.11132572 0.57300001
-0.22186668 -0.10915477 0.57450002
-0.21407339 -0.10551127 0.57317764
-0.20512569 -0.10482736 0.57297558
-0.19757986 -0.10370312 0.57325631
-0.21101652 -0.098291755 0.57550001
-0.20446596 -0.095150031 0.57267171
-0.19516732 -0.094792888 0.57325923
-0.18964097 -0.091532379 0.57550001
-0.20335107 -0.084983952 0.57288241
-0.19461562 -0.085045084 0.57241112
-0.18828192 -0.08497747 0.5752759
-0.20326075 -0.075860232 0.57268763
-0.19547109 -0.076140963 0.57091063
-0.18523875 -0.074975058 0.57262284
-0.17667036 -0.07178966 0.57228577
-0.20193608 -0.069124907 0.57085723
-0.1983905 -0.069100194 0.57040006
-0.18242572 -0.068762541 0.57150006
-0.17658083 -0.068775915 0.57100004
-0.19977145 -0.05591429 0.57000005
-0.19434288 -0.043428577 0.57000011
-0.040171433 -0.040171433 0.57000005
-0.03908572 -0.04071429 0.57000005
