# .PCD v0.7 - Point Cloud Data file format
VERSION 0.7
FIELDS x y z
SIZE 4 4 4
TYPE F F F
COUNT 1 1 1
WIDTH 421
HEIGHT 1
VIEWPOINT 0 0 0 1 0 0 0
POINTS 421
DATA ascii
0.049880002 -0.01102 0.60900003
0.056432329 -0.012895417 0.60853124
0.064677373 -0.013776829 0.6075902
0.075065427 -0.012982281 0.60873902
0.082096249 -0.01321234 0.60891318
0.046828862 -0.0040887138 0.60892487
0.054994866 -0.0051434916 0.60736525
0.06465666 -0.005196006 0.60615283
0.075045221 -0.0053342157 0.60773915
0.083121218 -0.0060096974 0.60890907
0.048051294 0.0012428572 0.60892868
0.055900518 0.0040584016 0.60824996
0.064778201 0.0046287579 0.60729611
0.074659467 0.0045859418 0.60814112
0.080040008 0.0023200002 0.60900003
0.057323266 0.011680274 0.60885727
0.063472793 0.012779856 0.60821217
0.07501334 0.011136002 0.60900009
0.11866272 -0.085312523 0.61900008
0.12454629 -0.084613137 0.6178571
0.13455616 -0.084495462 0.61652631
0.14260167 -0.085061423 0.618725
0.11700999 -0.075541325 0.61852014
0.12397096 -0.077537939 0.61716682
0.13476402 -0.079685926 0.61522222
0.078996189 -0.040087622 0.61900002
0.08303865 -0.040424492 0.61900008
0.048635714 -0.030949999 0.61900002
0.055404447 -0.031955138 0.617926
0.064881228 -0.032444872 0.61686116
0.075272113 -0.033326145 0.61667347
0.084721088 -0.034584533 0.61749226
0.093955263 -0.0333624 0.61815381
0.10080858 -0.030655237 0.61900002
0.035793625 -0.02191793 0.61834794
0.045118056 -0.025143126 0.61715376
0.05498407 -0.02515839 0.61422223
0.06518057 -0.024981059 0.61298537
0.074921988 -0.025188353 0.61174625
0.084714286 -0.02503798 0.61284608
0.094753362 -0.025127646 0.61456537
0.10296082 -0.024919458 0.61785716
0.028019616 -0.013129811 0.61810011
0.035335191 -0.014878146 0.61518693
0.044904076 -0.015168942 0.61236095
0.053555582 -0.016790273 0.61097884
0.065495051 -0.01900362 0.61019999
0.074869111 -0.018260751 0.61007142
0.086190686 -0.016012263 0.61147279
0.095072396 -0.015226429 0.61287677
0.10454667 -0.015036379 0.6166833
0.026011033 -0.0049676551 0.61715096
0.034977723 -0.0052483869 0.61223602
0.043325655 -0.0066464897 0.61012506
0.052285716 -0.0092952382 0.61000001
0.087057889 -0.0042061624 0.61035299
0.095115833 -0.0052510723 0.61268747
0.10362408 -0.0053937277 0.61768287
0.025700981 0.0043994421 0.61773854
0.03500827 0.0046696304 0.61276543
0.044724666 0.0053586322 0.61000031
0.052140478 0.0066809529 0.61000001
0.079009525 0.0081333332 0.61000001
0.08489766 0.0046743681 0.61101443
0.094895855 0.0047194478 0.61465812
0.1026308 0.0031245553 0.61839139
0.027458886 0.01285946 0.61860883
0.035338897 0.014866793 0.61473322
0.045200989 0.014997727 0.61089754
0.054506619 0.016087148 0.61098373
0.065978594 0.016599091 0.61095661
0.074932344 0.016299631 0.61176276
0.084667489 0.014780202 0.61383331
0.092253052 0.013482857 0.61815017
0.036905684 0.022660596 0.61770374
0.044792283 0.024858998 0.61589992
0.055256482 0.024391139 0.61565524
0.064748943 0.025125807 0.61628586
0.074326947 0.023997143 0.6163125
0.083992384 0.022034571 0.61848158
0.05895238 0.030655237 0.61900002
0.061310478 0.030655239 0.61900008
0.13091621 -0.090041913 0.62200004
0.10803763 -0.08087977 0.62674999
0.114562 -0.083072394 0.62123096
0.1477225 -0.084515467 0.62157691
0.15279587 -0.08362864 0.62339288
0.038158942 -0.07153143 0.62822229
0.041633807 -0.07098715 0.62900001
0.10629223 -0.074284293 0.62627286
0.11275941 -0.07580284 0.62182045
0.14794716 -0.078638569 0.62200004
0.15376633 -0.077453941 0.62285721
0.037357122 -0.065657355 0.62802869
0.044651944 -0.064850114 0.62736678
0.051789001 -0.064628638 0.62744445
0.10584594 -0.065072998 0.62628347
0.11138029 -0.067299165 0.62247068
0.038487051 -0.058207046 0.6275
0.044823557 -0.057047367 0.6275456
0.051977012 -0.057433747 0.62728578
0.065695554 -0.050320007 0.62900001
0.075059623 -0.050519623 0.6285001
0.080272384 -0.050320003 0.62900001
0.10645993 -0.05893949 0.62853855
0.11004952 -0.059809525 0.62800002
0.038927622 -0.041922539 0.62883335
0.045018304 -0.044625774 0.62750798
0.05489954 -0.044491913 0.62538815
0.064958446 -0.044486046 0.62419671
0.0748192 -0.044649035 0.62351459
0.085161157 -0.044946555 0.62356699
0.094732642 -0.044554595 0.62486899
0.10335945 -0.043167911 0.62731254
0.02819778 -0.032184605 0.6277501
0.035420392 -0.034755826 0.62532759
0.044865072 -0.035242692 0.62302947
0.054695696 -0.036788475 0.6214211
0.064935401 -0.037318323 0.62111443
0.074104771 -0.038039047 0.62083346
0.087980956 -0.038971432 0.62
0.096459351 -0.037024461 0.62059999
0.10490051 -0.034990635 0.6227966
0.11226267 -0.033758499 0.62700003
0.016376156 -0.022525124 0.62806898
0.025374644 -0.024665534 0.62528372
0.034391571 -0.026484095 0.62172341
0.040776193 -0.027579365 0.62050003
0.10744543 -0.025395416 0.62062961
0.1129115 -0.024721518 0.62411362
0.0091771437 -0.013167832 0.62844449
0.014949479 -0.014828484 0.62541276
0.023592232 -0.015421245 0.62176937
0.030704763 -0.018895239 0.62
0.10904127 -0.016139682 0.62
0.11374117 -0.01422397 0.62652785
0.0086913295 -0.0052899253 0.62826329
0.014832204 -0.005343392 0.62332821
0.021075789 -0.0062176436 0.62015784
0.10820153 -0.0050425399 0.62060004
0.11357099 -0.0059281378 0.62504542
0.0092403479 0.0033716022 0.62781817
0.014850292 0.0047588623 0.62411118
0.020754762 0.0059840474 0.62043744
0.10629103 0.0056237103 0.62273693
0.11286237 0.0035898811 0.62762493
0.016499998 0.014606169 0.62638104
0.023572901 0.015678056 0.62138784
0.030704763 0.018895239 0.62
0.096194655 0.015204396 0.62073821
0.10393726 0.012849456 0.62535715
0.017854199 0.021665284 0.62872732
0.025447486 0.024549948 0.62515283
0.033949528 0.026274579 0.62256527
0.045654047 0.029399762 0.62049997
0.053511344 0.02901281 0.62054551
0.067904763 0.029523809 0.62
0.07595697 0.028701404 0.6202352
0.085557841 0.0266273 0.62153351
0.094146825 0.024232384 0.62486279
0.029041905 0.031437621 0.62875003
0.035746921 0.032841463 0.62770009
0.045478061 0.034107637 0.62476367
0.055049703 0.035218578 0.62415409
0.064792953 0.034849621 0.62308478
0.074332014 0.033271056 0.62374347
0.085001521 0.032228343 0.62567997
0.09135811 0.031516194 0.62833333
0.044897355 -0.07231842 0.63044447
0.050400004 -0.070800006 0.63000005
0.10122001 -0.072385721 0.63075006
0.047400005 -0.069600008 0.63000005
0.053106669 -0.065133333 0.63350004
0.065758787 -0.061015069 0.63718194
0.073355049 -0.061088391 0.63760006
0.086673498 -0.061188575 0.63716674
0.091500327 -0.06113524 0.6376667
0.10183308 -0.063662335 0.63509095
0.038114574 -0.053085621 0.63630003
0.045079459 -0.052036889 0.63114291
0.055371977 -0.05436945 0.63269097
0.064840131 -0.055185277 0.632855
0.074933052 -0.055652607 0.63287514
0.084959142 -0.054985184 0.6328283
0.09502209 -0.054808836 0.63386565
0.10460873 -0.054566953 0.63222969
0.11366995 -0.053978655 0.63602936
0.12072666 -0.051566668 0.63700002
0.01944381 -0.040102858 0.63800001
0.025603246 -0.043572515 0.63683778
0.034746788 -0.045434054 0.63360941
0.041498095 -0.049317144 0.63150001
0.054600004 -0.049200002 0.63000005
0.099000007 -0.049200002 0.63000005
0.10648412 -0.046888124 0.63064522
0.11496872 -0.04538472 0.63532138
0.12164241 -0.046253432 0.63735008
0.009721905 -0.030380953 0.63800001
0.016334476 -0.033835769 0.63586676
0.024260819 -0.035798833 0.63303512
0.031589337 -0.038677529 0.63060009
0.11606213 -0.036669664 0.63205719
0.12087782 -0.03550449 0.63642865
-0.063973613 -0.021527078 0.63800013
-0.059546668 -0.021266667 0.63800001
0.0065115914 -0.023562973 0.63470733
0.013855185 -0.026344385 0.63188589
0.021360002 -0.028560003 0.63000005
0.11933969 -0.020965081 0.63500011
0.12386516 -0.0217415 0.63664287
-0.061774608 -0.018228572 0.63800001
-0.059141587 -0.017418412 0.63800001
-0.0012152381 -0.011544762 0.63800001
0.0041861525 -0.015354196 0.63395244
0.010800001 -0.019200001 0.63000005
0.1182918 -0.01602143 0.63168764
0.12312578 -0.015001717 0.63357496
-0.0012152381 -0.0060761911 0.63800001
0.0034037028 -0.0054591917 0.63298112
0.1180878 -0.003305556 0.63100004
0.12169412 -0.0060234186 0.63294113
0.0047950288 0.0047403388 0.63294917
0.11596245 0.0059246481 0.63180006
0.12114286 0.00060666667 0.63600004
0.0068830736 0.014795369 0.63393193
0.011958526 0.015618791 0.63072735
0.10621424 0.017109729 0.63185722
0.11407898 0.013914657 0.63505566
0.00888127 0.021397462 0.63583338
0.014861844 0.025037002 0.63346809
0.021152763 0.028124575 0.63100004
0.097834527 0.027888333 0.63312501
0.10450674 0.024356615 0.63543999
0.11095548 0.022616904 0.63750005
0.018060744 0.031272169 0.63688892
0.025192194 0.03453394 0.63469994
0.03435038 0.037549045 0.63230002
0.043596741 0.038791705 0.63078582
0.050400004 0.0396 0.63000005
0.068890482 0.039409526 0.63175005
0.07579308 0.038281754 0.63120008
0.084968112 0.036954716 0.63574177
0.09546762 0.033020139 0.63442862
0.10220477 0.031509053 0.63625014
0.026735239 0.040102858 0.63800001
0.036531258 0.041594461 0.63545465
0.045593631 0.042481616 0.63507694
0.055423111 0.043437753 0.63431585
0.064211763 0.043357193 0.63641173
0.074055068 0.043542035 0.63543761
0.084459051 0.040507939 0.63800001
0.058719054 -0.07046286 0.64900005
0.06445609 -0.071246557 0.648
0.075167239 -0.070601523 0.64800006
0.084068745 -0.07071083 0.64818186
0.095154084 -0.070438735 0.64877784
0.10182857 -0.070354283 0.648
0.035014763 -0.060931906 0.64787501
0.057818577 -0.065147586 0.64423996
0.064800397 -0.065780401 0.64318752
0.075444728 -0.065661207 0.64261693
0.084689237 -0.065564185 0.64254361
0.095425151 -0.065209903 0.64353859
0.10211097 -0.066437386 0.64587504
0.11683131 -0.062083267 0.6417858
0.026152527 -0.05312575 0.64660537
0.033541143 -0.055554576 0.64445007
0.11754858 -0.056977045 0.64073682
0.0084899999 -0.041527383 0.64837503
0.015835367 -0.044397779 0.64537734
0.023468003 -0.047430389 0.64175004
0.030523812 -0.048838098 0.64100003
-0.072840154 -0.031950768 0.64900011
-0.065639906 -0.033618663 0.64876497
-0.053919271 -0.031156048 0.64438468
-0.046538778 -0.030909937 0.6454286
-0.0012349207 -0.032109208 0.64833343
0.0051297271 -0.034788288 0.64483339
0.012406617 -0.03645584 0.64131582
-0.07337971 -0.026085328 0.64668584
-0.065537073 -0.025731223 0.64500016
-0.054571737 -0.025073143 0.64281517
-0.044887062 -0.02521283 0.6457032
-0.038916703 -0.025008893 0.64793342
-0.0032434291 -0.024188444 0.64563334
0.0026379721 -0.026684053 0.64141947
-0.065135084 -0.018493814 0.64016664
-0.053930089 -0.017853593 0.64353335
-0.045261085 -0.016937232 0.6478411
-0.039204907 -0.017836463 0.64900011
-0.0046069045 -0.015331156 0.643875
-0.0054389127 -0.0054309038 0.64375496
-0.0046881028 0.004638901 0.6441865
0.00044346321 0.0067651956 0.64036363
-0.002781023 0.014946173 0.64570373
0.0016143539 0.015773131 0.64207149
0.1153477 0.01812982 0.64107692
-0.0024711112 0.021415874 0.64866674
0.0050126319 0.025049623 0.64505267
0.011604128 0.028097779 0.6413334
0.10772164 0.028062588 0.64057148
0.11450581 0.0226548 0.64161545
0.0098895244 0.030904762 0.64900005
0.015213562 0.033325944 0.6423201
0.022123599 0.037734818 0.6413334
0.094017141 0.03768773 0.64055556
0.023451429 0.04073143 0.648
0.038358733 0.0457073 0.6426667
0.044306438 0.046980437 0.64236367
0.054285347 0.048143677 0.64490479
0.066353358 0.047530659 0.64131826
0.075735167 0.046601351 0.64170843
0.084330842 0.044594657 0.64307499
0.09111651 0.041085079 0.64066672
0.045360003 0.050551534 0.64555556
0.054417726 0.051001616 0.64700001
0.06566485 0.051404636 0.64521736
0.071852073 0.05103302 0.64300001
0.068933338 -0.080213338 0.65800005
0.074237473 -0.08074896 0.65760005
0.0571151 -0.073868662 0.65461898
0.065465406 -0.075510338 0.65581495
0.074907184 -0.075645275 0.65479159
0.085525751 -0.07535094 0.65446347
0.094251901 -0.074284643 0.65268761
0.10059428 -0.072030477 0.65200001
0.017573334 -0.06025143 0.65900004
0.02601848 -0.063507453 0.65651357
0.033255242 -0.064725429 0.65296298
0.00788109 -0.051229939 0.6582858
0.015590864 -0.054220799 0.65603715
0.024254778 -0.057711612 0.65240002
-0.0027341994 -0.0421413 0.6577273
0.0048189661 -0.044829428 0.65406382
0.01243873 -0.048105188 0.65311122
-0.061020415 -0.03289796 0.65000004
-0.058151536 -0.033348992 0.65111113
-0.0043850066 -0.034963958 0.65435892
0.00099352386 -0.039256383 0.65220004
-0.06334921 -0.029301589 0.6500001
-0.0346836 -0.023474989 0.65125912
-0.028487302 -0.021833336 0.65500003
-0.012372503 -0.022473929 0.65775001
-0.0072947787 -0.026079932 0.65303445
-0.044288468 -0.012190052 0.65088892
-0.034432296 -0.0149714 0.65343738
-0.02797766 -0.015789596 0.65734625
-0.013146796 -0.014644764 0.6572001
-0.009411158 -0.016063809 0.65242863
-0.043239601 -0.008807621 0.6539287
-0.035379976 -0.0076250564 0.65628207
-0.028870476 -0.0087866671 0.65900004
-0.013012928 -0.0052292524 0.65717864
-0.0099561913 -0.0056007146 0.65337503
-0.011959828 0.0020514289 0.6577273
-0.0099695241 0.0018709524 0.65425003
-0.0062761903 0.014435239 0.65900004
0.0027857143 0.028495239 0.65050006
0.0072481753 0.033344526 0.6523335
0.016355556 0.037274923 0.65466672
0.021144763 0.039801907 0.65300006
0.018516192 0.043041911 0.65686667
0.025463872 0.045025848 0.65461701
0.033961751 0.0466673 0.65236115
0.028870476 0.050209526 0.65900004
0.033832382 0.05153333 0.657875
0.057563931 0.054221909 0.65343755
0.062115982 0.054663919 0.65222228
0.04962286 -0.080160007 0.66800004
0.056233216 -0.081492499 0.66718745
0.065350801 -0.082500011 0.66462511
0.07061334 -0.083222866 0.66200006
0.082530953 -0.080640003 0.66150004
0.027935876 -0.071111113 0.66666669
0.033082787 -0.071696855 0.66215402
0.049173974 -0.078424774 0.66766679
0.054751318 -0.078053869 0.66511118
0.064271346 -0.078938365 0.66163653
0.083726667 -0.079319999 0.66100001
0.015435783 -0.063299261 0.66557139
0.02282705 -0.067380719 0.66439998
0.0327661 -0.069310479 0.66160005
-0.0031733334 -0.050761905 0.66624999
0.005096138 -0.054391488 0.66491663
0.01145127 -0.057683181 0.66191673
-0.010158731 -0.041905403 0.66666669
-0.0051727737 -0.045222804 0.66382354
0.0012598641 -0.048446808 0.66185725
-0.011047445 -0.033139743 0.66445464
-0.0083213337 -0.036311429 0.6619001
-0.013589841 -0.024800001 0.66200006
-0.023207439 -0.012829124 0.66274196
-0.017572496 -0.014392684 0.66267997
-0.040289525 -0.0037771428 0.66100001
-0.033958018 -0.0029215999 0.6612801
-0.024504345 -0.0049734027 0.66192728
-0.017523725 -0.004982511 0.6614092
-0.033119936 0.0025351024 0.66421431
-0.024422571 0.0041321055 0.66537291
-0.015444197 0.0051594181 0.66310203
-0.0088133328 0.008183809 0.66100001
-0.022077952 0.011525569 0.66669232
-0.014125717 0.013500915 0.66526538
-0.0077184527 0.014255834 0.66156256
0.027480001 0.051179051 0.66180009
0.030667938 0.052513655 0.66166675
0.037118096 -0.0819626 0.67618191
0.045278728 -0.083420016 0.67605567
0.053401913 -0.084340677 0.67239994
0.017175786 -0.072025172 0.67521435
0.025116194 -0.074080892 0.6728667
0.035834868 -0.07775934 0.67499995
0.04308762 -0.079743817 0.67524999
0.0055582603 -0.062312458 0.67182618
0.01380433 -0.067289785 0.67286366
-0.001975931 -0.054866154 0.67127275
0.0019960713 -0.057275366 0.671
-0.017254286 -0.028757144 0.671
-0.022532815 -0.018002944 0.67072731
-0.028076192 0.0076571433 0.67000002
0.043390475 -0.08678095 0.68000001
