# .PCD v0.7 - Point Cloud Data file format
VERSION 0.7
FIELDS x y z
SIZE 4 4 4
TYPE F F F
COUNT 1 1 1
WIDTH 584
HEIGHT 1
VIEWPOINT 0 0 0 1 0 0 0
POINTS 584
DATA ascii
0.056095138 -0.13202159 0.6938889
0.061307937 -0.13143492 0.69466674
0.047198094 -0.12647095 0.69800001
0.055024676 -0.12529853 0.69612479
0.063047297 -0.1245398 0.69633341
0.056221064 -0.11854207 0.69788235
0.063359365 -0.11940698 0.69783342
0.027255237 -0.07046476 0.69800001
0.039885715 -0.07046476 0.69800001
0.041215237 -0.07046476 0.69800001
0.01728143 -0.063809767 0.69791669
0.025245717 -0.065110035 0.69759202
0.035094392 -0.064928062 0.69722253
0.045047358 -0.064575061 0.69748849
0.05434015 -0.063886978 0.69760543
0.063950099 -0.061689902 0.69800001
0.018702177 -0.057531428 0.69778574
0.025225228 -0.055758532 0.69700009
0.035406195 -0.055396974 0.69638979
0.044965897 -0.054890767 0.69433945
0.055029117 -0.055028547 0.69612461
0.065080613 -0.055120535 0.69728571
0.072133526 -0.053173035 0.69789475
0.038515918 -0.04838286 0.69728577
0.045073476 -0.047059469 0.69600022
0.054608457 -0.047647543 0.69720006
0.065122254 -0.048689704 0.69772732
0.070907936 -0.048749208 0.69800007
0.045866583 -0.12290657 0.70138097
0.04701189 -0.11553545 0.70356762
0.054248273 -0.11412685 0.70048803
0.062639922 -0.11531404 0.70075011
0.054704558 -0.10898536 0.70594746
0.060257144 -0.1098019 0.70300001
0.018430475 -0.090803817 0.70800006
0.025422327 -0.092821077 0.70766681
0.035008106 -0.092906848 0.70688587
0.04555383 -0.093570359 0.70747852
0.054885805 -0.093886159 0.70711386
0.063861355 -0.091746867 0.7077896
0.0059466665 -0.081918426 0.70776474
0.015707104 -0.083965652 0.70740008
0.024849152 -0.084637575 0.70528579
0.034847505 -0.084440924 0.70365298
0.044928953 -0.084498607 0.70410699
0.055007663 -0.084529489 0.70436728
0.064591311 -0.084553897 0.70525986
0.072629027 -0.083843343 0.70768011
-0.0019265307 -0.074845716 0.70800012
0.0045581944 -0.075044304 0.70524138
0.014737651 -0.075044662 0.70351028
0.02463552 -0.07502871 0.70194471
0.034759615 -0.074871376 0.7018773
0.044898666 -0.074960344 0.70133334
0.054729756 -0.074753515 0.70079613
0.064982593 -0.075028166 0.7033748
0.075433895 -0.075083263 0.70666021
0.082633696 -0.072104529 0.70756251
0.13485716 -0.070125714 0.708
0.14227429 -0.070125714 0.708
-0.0013485714 -0.068777144 0.708
0.0058085723 -0.065632433 0.70441663
0.013506262 -0.065920345 0.70066684
0.020000001 -0.069333337 0.70000005
0.038000003 -0.069333337 0.70000005
0.046222225 -0.069111124 0.70000005
0.055923231 -0.068439864 0.70030767
0.065119267 -0.066395678 0.70127279
0.074989505 -0.06490384 0.7034905
0.084631607 -0.064480767 0.70522445
0.093254603 -0.062094927 0.70783341
0.1288849 -0.067043275 0.70800006
0.13519044 -0.066105276 0.70739412
0.14420921 -0.064672798 0.70800012
0.15148953 -0.066304766 0.70800006
0.0084209517 -0.05793643 0.70737493
0.014502211 -0.05503282 0.70400017
0.024178414 -0.050887406 0.70100003
0.032275811 -0.051214483 0.70020002
0.076031581 -0.055710725 0.70067751
0.084393501 -0.055055209 0.70393753
0.092988916 -0.057298705 0.70704544
0.018335238 -0.04880419 0.70780003
0.02546511 -0.04653281 0.70540911
0.034618136 -0.044564463 0.70376915
0.044664644 -0.042228915 0.70218188
0.055048432 -0.042639829 0.70230293
0.064720407 -0.043985199 0.70297921
0.074510798 -0.047135796 0.70375013
0.081897147 -0.049542382 0.70774996
0.036946665 -0.037957303 0.7075001
0.044903953 -0.037496336 0.70696163
0.054389525 -0.038638096 0.70680004
0.064731434 -0.039108571 0.70800006
0.025450289 -0.11124974 0.7184
0.036225289 -0.11195069 0.71772224
0.043334499 -0.11275753 0.71395653
0.063442856 -0.11050715 0.71625006
0.0095866676 -0.10134476 0.71900004
0.015757006 -0.10404162 0.7167998
0.024910444 -0.10467023 0.71466035
0.035016853 -0.10480669 0.71348083
0.044863738 -0.10463584 0.71126926
0.054811515 -0.10394741 0.71049988
0.065026961 -0.10456932 0.7148
0.073222168 -0.10218634 0.7179091
-0.015057437 -0.091298036 0.7186923
-0.0049903104 -0.092483073 0.71721733
0.0054526981 -0.094433561 0.71576202
0.014683725 -0.095217653 0.71232617
0.024142954 -0.097452946 0.71010011
0.035161909 -0.098047622 0.7100001
0.04341143 -0.098182872 0.71000004
0.058422863 -0.098182864 0.71000004
0.065530792 -0.096445017 0.71079999
0.074766986 -0.09517929 0.71443743
0.08413066 -0.09287855 0.71747994
-0.012981225 -0.087060265 0.71735722
-0.0052281478 -0.085206404 0.71328896
0.0042030774 -0.086677216 0.7112819
0.01265769 -0.087544896 0.71021438
0.076771848 -0.086092703 0.71033329
0.084655151 -0.084985055 0.71373343
0.092790619 -0.08342512 0.71755552
-0.0050663357 -0.075789079 0.71108705
0.07979048 -0.07979048 0.71000004
0.086236678 -0.075780742 0.71151429
0.095350981 -0.074920282 0.71510202
0.10271203 -0.073342979 0.71718746
0.11786503 -0.073293082 0.71786666
0.12500817 -0.074660718 0.71394849
0.13487002 -0.07534112 0.71061981
0.14491105 -0.073855683 0.71271437
0.15032572 -0.070422858 0.71100003
-0.002270635 -0.066296831 0.71525002
0.0013551192 -0.062802151 0.71293753
0.09551914 -0.066578858 0.71145171
0.10283609 -0.0670821 0.71504998
0.11685057 -0.065789707 0.71574277
0.12419099 -0.065997809 0.71052933
0.13523811 -0.062209524 0.71000004
0.14837551 -0.066459872 0.7100001
0.15402131 -0.062812559 0.71127278
0.0054711276 -0.05524762 0.71434212
0.012753199 -0.050627757 0.71014291
0.087228574 -0.050376192 0.71000004
0.090388574 -0.050672382 0.71900004
0.14675122 -0.05639708 0.71171439
0.15454148 -0.054969132 0.71326798
0.0086561907 -0.0466973 0.71758336
0.014716975 -0.04463996 0.71402186
0.023677146 -0.041943815 0.71035004
0.068971433 -0.040571429 0.71000004
0.075791277 -0.042983666 0.71296167
0.083609954 -0.045638148 0.71432257
0.090388574 -0.049302857 0.71900004
0.14896667 -0.048515238 0.71750003
0.15463239 -0.047878355 0.71727264
0.16023429 -0.047248572 0.71900004
0.017310861 -0.037810545 0.71753341
0.025441352 -0.03536579 0.7147817
0.034594994 -0.033521198 0.71345663
0.045031235 -0.032490615 0.71445453
0.05516731 -0.033721011 0.7135306
0.065007195 -0.034344614 0.71403694
0.07394141 -0.037348114 0.71671987
0.035607621 -0.028760003 0.71900004
0.045184497 -0.028069528 0.71885711
0.054266069 -0.027773928 0.717875
0.062282082 -0.027721385 0.71790916
0.026346669 -0.12064 0.7280001
0.034881782 -0.12126185 0.72673351
0.041219812 -0.12227964 0.7262001
0.069333337 -0.12133333 0.72800004
0.071741596 -0.12147938 0.72200006
0.0076817325 -0.11197041 0.72736377
0.015467763 -0.1140238 0.72512501
0.024565659 -0.11611923 0.72409374
0.034418743 -0.11625641 0.72187096
0.041973814 -0.11904097 0.72250009
0.067043304 -0.11406529 0.72320014
0.073582366 -0.11359028 0.72529632
0.082680963 -0.11108827 0.72750008
-0.013104243 -0.10231048 0.72763646
-0.0051663653 -0.10447656 0.72658545
0.0045725065 -0.10497899 0.72369802
0.012365239 -0.10751977 0.72137511
0.069600001 -0.10868572 0.72000003
0.076287612 -0.10572221 0.72141939
0.084542066 -0.10458715 0.72382927
0.090554297 -0.10256635 0.72766674
-0.013570058 -0.096468806 0.72387999
-0.0063409521 -0.097237192 0.72208703
0.0022285713 -0.098228574 0.72000003
0.086237378 -0.097024411 0.7208097
0.094388276 -0.09356226 0.72434372
0.10168889 -0.090595566 0.72800004
-0.015085715 -0.087771438 0.72000003
0.09650524 -0.086545907 0.72120017
0.10467811 -0.084336452 0.7255128
0.11085715 -0.081064768 0.72750008
-0.011081143 -0.073411815 0.72720003
-0.0083804084 -0.073339045 0.72450012
0.10606527 -0.076266587 0.72113061
0.1119532 -0.073314689 0.7218948
0.12068571 -0.07954286 0.72000003
-0.011083176 -0.067883812 0.72733343
-0.0063030482 -0.064655535 0.72264999
0.10664106 -0.06388741 0.72400004
0.11218381 -0.064398676 0.7209
-0.0041481233 -0.055683818 0.72502941
0.0017157143 -0.052975841 0.72125012
0.095090352 -0.053081371 0.72650015
0.10790515 -0.057370294 0.7275334
0.11314575 -0.056870315 0.72595662
-0.0024520147 -0.04732367 0.72746164
0.0037944019 -0.044562571 0.72426534
0.087383538 -0.042849526 0.72407162
0.092631698 -0.045314278 0.72628003
0.15460376 -0.042804826 0.72226471
0.16045715 -0.045257144 0.72000003
0.0076087923 -0.03619004 0.72653854
0.014302581 -0.034014445 0.72287792
0.021951022 -0.030967075 0.72028583
0.069942862 -0.030171428 0.72000003
0.076171122 -0.033541355 0.72379178
0.083008066 -0.036423735 0.72492313
0.1564372 -0.037784204 0.72682345
0.016500808 -0.028108425 0.72669238
0.025143664 -0.025137952 0.72448891
0.034916393 -0.024266351 0.72304147
0.045187939 -0.023278514 0.7213611
0.055244848 -0.023218121 0.72233343
0.065053508 -0.024436131 0.72424996
0.071689747 -0.027535239 0.72688895
0.027040001 -0.019413333 0.72800004
0.034964252 -0.018761026 0.72753859
0.044995796 -0.017997228 0.72687519
0.054825861 -0.018604219 0.72735721
0.038098093 -0.13037238 0.73400003
0.041732576 -0.13107581 0.73520005
0.0060977777 -0.12133164 0.73877776
0.015611731 -0.12245543 0.73494732
0.025319848 -0.12414375 0.73196006
0.034700528 -0.12625656 0.73196292
0.042561907 -0.12629245 0.73169225
0.077454291 -0.12071525 0.73266667
-0.013102011 -0.11347989 0.73699993
-0.005152605 -0.11474263 0.73564708
0.0040369113 -0.11593185 0.73327023
0.013913906 -0.11884381 0.73060006
0.068828568 -0.11819048 0.73000002
0.075973779 -0.11744265 0.73152381
0.08384563 -0.11497581 0.73300004
0.090791434 -0.11190571 0.73900002
-0.013537959 -0.10680135 0.7315715
-0.0071540144 -0.1092947 0.73028576
0.089234293 -0.10805906 0.73199999
0.094929576 -0.10422064 0.73393542
0.1039126 -0.10157398 0.73722219
0.097363181 -0.097517885 0.73022223
0.10485561 -0.095131241 0.73207301
0.11084143 -0.093037628 0.73312497
-0.012582858 -0.081089526 0.73400003
0.10943429 -0.087408572 0.73033333
0.11199024 -0.086387381 0.73150003
-0.01401143 -0.07416632 0.73536366
-0.0090814289 -0.078939058 0.7335
-0.013112294 -0.064913154 0.73509097
-0.0097733345 -0.060734287 0.73300004
0.1030362 -0.061264765 0.73100001
-0.011255874 -0.057685718 0.73866671
-0.008485185 -0.053693336 0.73538888
0.098549843 -0.054147091 0.73100001
0.10414518 -0.054311138 0.73241293
0.11287967 -0.051664419 0.73490906
-0.0060856049 -0.044497095 0.73460001
0 -0.040323809 0.73000002
0.096263647 -0.045283016 0.73325008
0.10570024 -0.047782756 0.73784214
0.11220723 -0.048650291 0.73820001
-0.0030756465 -0.036016058 0.73680961
0.0028741669 -0.0339275 0.73271877
0.077866673 -0.03059048 0.73000002
0.0865703 -0.033521384 0.73195451
0.093403988 -0.036314446 0.73691678
0.14907303 -0.032345399 0.7383334
0.15346047 -0.03357847 0.73184854
0.0059508584 -0.026211098 0.73594999
0.0148691 -0.023929043 0.73191661
0.021567143 -0.021566669 0.73049998
0.067917466 -0.021325395 0.73016667
0.075860567 -0.024669325 0.73250014
0.082907908 -0.026486004 0.73585004
0.15268761 -0.027526559 0.7369445
0.009142857 -0.019693334 0.7385
0.016025973 -0.016874691 0.73660618
0.024999063 -0.015010457 0.73466671
0.034748368 -0.014058784 0.73219436
0.044589661 -0.013233946 0.73153561
0.054816414 -0.013914007 0.73291171
0.064476945 -0.015907954 0.73474419
0.072797075 -0.017926447 0.73715389
0.02703598 -0.0092203179 0.73844445
0.035220452 -0.0085819541 0.73805273
0.044990569 -0.008434739 0.73814291
0.054400206 -0.0086751329 0.73861122
0.060527619 -0.0098533342 0.73900002
-0.046842225 -0.15170223 0.74900001
-0.061346669 -0.14552 0.74900001
-0.057556067 -0.14303568 0.74793333
-0.044676416 -0.14499211 0.74781817
-0.038205374 -0.14328468 0.74545461
-0.052999049 -0.1375792 0.74525017
-0.045032762 -0.13467179 0.74252021
-0.03573069 -0.13476086 0.74440813
-0.028687617 -0.13312636 0.74683344
0.0073289806 -0.13151078 0.74814296
0.016480001 -0.13153145 0.74877781
0.025109613 -0.13312915 0.7475
0.033954669 -0.13325067 0.74900001
-0.043250158 -0.12607151 0.74650019
-0.035467759 -0.1248534 0.74487746
-0.028754765 -0.12632453 0.74781239
-0.004859366 -0.12447301 0.74396664
0.0048298589 -0.12618151 0.74497306
0.014930326 -0.12771951 0.7445792
0.024629118 -0.12881498 0.74200004
0.087565713 -0.12102381 0.7475
0.091306664 -0.12126667 0.74900001
-0.042086668 -0.11984 0.74900001
-0.03514697 -0.11825382 0.74752629
-0.029959999 -0.11984 0.74900001
-0.011291429 -0.11926572 0.74100006
-0.0078412713 -0.11918732 0.74100012
0.088638648 -0.11785279 0.74542868
0.095090777 -0.1145301 0.74414289
0.10295099 -0.11290476 0.74653351
0.097774774 -0.10836381 0.74125004
0.10397974 -0.10655922 0.743182
-0.016774558 -0.063248441 0.742643
-0.021400001 -0.05136 0.74900001
-0.015281381 -0.054960337 0.74417502
0.11834286 -0.052800823 0.74342865
0.12186439 -0.052774858 0.74480009
-0.013847858 -0.046964288 0.74529165
-0.0095404759 -0.042045716 0.7420001
0.098094285 -0.044460006 0.74100006
0.10343186 -0.045171261 0.74109107
0.11520558 -0.044799495 0.74257493
0.12143157 -0.046714831 0.74314284
-0.011393016 -0.038450163 0.74766672
-0.0075106169 -0.034849528 0.74400008
0.094526671 -0.032496382 0.74180007
0.11801334 -0.039573334 0.74200004
0.14825906 -0.031634286 0.74366677
-0.0040505822 -0.02684734 0.74485189
0.0022959525 -0.022985956 0.74268764
0.086673588 -0.024334982 0.74372727
0.092985027 -0.028025528 0.74566674
0.14829786 -0.025842711 0.74588472
0.15186539 -0.023142224 0.74400008
-0.0014266666 -0.019973334 0.74900001
0.0056056236 -0.016259139 0.74550003
0.014305835 -0.012541668 0.74193758
0.067528889 -0.011764446 0.74116677
0.075422436 -0.014911467 0.74448162
0.082922861 -0.019175477 0.74575007
0.0087567363 -0.0089600012 0.74842864
0.016039262 -0.0074215671 0.74599993
0.025102293 -0.0061910399 0.74437052
0.035638571 -0.0039436058 0.74421436
0.045296535 -0.0035349661 0.74314296
0.055339832 -0.0040520201 0.74427593
0.064982101 -0.0073259058 0.74483335
0.072414048 -0.0087171439 0.74725002
0.038520001 0 0.74900001
0.045579053 0.000428 0.74780005
0.051934287 0 0.74700004
-0.053747728 -0.15102983 0.7535556
-0.054147225 -0.14632371 0.7519356
-0.047460321 -0.14698415 0.75000006
0.028117143 -0.14130667 0.75700003
0.03313376 -0.14168487 0.75644451
-0.0021490478 -0.1334624 0.75237507
0.0038844901 -0.13448606 0.75167859
0.014470539 -0.13598318 0.7524839
0.024614988 -0.13679266 0.75120008
0.034496997 -0.13694565 0.75223082
0.041539051 -0.13786666 0.75199997
0.076514415 -0.13282007 0.75793332
0.083384983 -0.1319706 0.75766671
-0.025262604 -0.12313351 0.75409096
0.077245295 -0.12900764 0.75722229
0.085208841 -0.1268889 0.75616121
0.090676203 -0.12360954 0.75166672
-0.041221786 -0.11539584 0.75437504
-0.034501288 -0.11306138 0.75194132
-0.026049662 -0.11579558 0.75474995
-0.040961914 -0.10939239 0.75900006
-0.033860173 -0.10597183 0.75684625
-0.02730603 -0.10599248 0.75833327
-0.031082859 -0.099754296 0.75900006
-0.020026669 -0.047920004 0.75100005
-0.016408945 -0.043475866 0.75326085
-0.013200663 -0.034585264 0.7551738
0.14590669 -0.030754289 0.75100005
-0.010635477 -0.025951192 0.75700009
-0.0063450625 -0.0227201 0.75300002
0.089043811 -0.020106666 0.75400001
0.091384381 -0.023202285 0.75200003
0.1385197 -0.023644213 0.75836837
0.1435599 -0.02440669 0.75256419
-0.0034076192 -0.016110376 0.75468415
0.0022737256 -0.011972213 0.75264704
0.077814974 -0.011436735 0.75057149
0.083713956 -0.014327093 0.75237936
0.13710019 -0.016751241 0.75819999
0.1427362 -0.018231113 0.75566673
0.0058239605 -0.0061276197 0.755
0.013558191 -0.0029400003 0.75349998
0.024307484 -0.0021442177 0.75071436
0.031428576 -0.0014285715 0.75000012
0.058571432 -0.0014285715 0.75000006
0.065177403 -0.002384762 0.75146675
0.074717052 -0.0047176043 0.75338715
0.081546038 -0.007673651 0.75550008
0.016844604 0.001445397 0.75808328
0.024938619 0.0035259523 0.75472492
0.034304641 0.0044982764 0.75372344
0.044439416 0.0053158989 0.75448722
0.054625414 0.0034981223 0.75468588
0.064229459 0.0023180274 0.7559287
0.072464451 0.0004819048 0.75833338
0.075375244 -0.13625525 0.76100004
-0.020293334 -0.12031048 0.76100004
-0.021672498 -0.11326357 0.76174998
-0.018233649 -0.11450731 0.76583332
-0.041338503 -0.10635538 0.76342863
-0.037255116 -0.10208204 0.76200008
-0.023096226 -0.1037847 0.76258051
-0.018659469 -0.10595451 0.76666671
-0.034379665 -0.09492214 0.76453489
-0.024755608 -0.094669245 0.76467341
-0.017555919 -0.091758646 0.76814288
-0.032261081 -0.086741343 0.76753348
-0.024829423 -0.084709816 0.76677537
-0.018505396 -0.084735245 0.76700008
-0.024115309 -0.074937157 0.76665866
-0.018602382 -0.075873338 0.76600003
-0.021867938 -0.040817782 0.76533335
-0.018868571 -0.04064 0.76200002
-0.021766264 -0.036865313 0.76542848
-0.017427968 -0.034008618 0.76242095
-0.014484303 -0.025052594 0.76503223
-0.0086971428 -0.020293334 0.76100004
0.094210617 -0.020749388 0.76257157
0.12678631 -0.02174012 0.76731259
0.13364761 -0.023522744 0.76235992
-0.011168981 -0.015651565 0.76714295
-0.0064514279 -0.01308265 0.76330429
0.088798515 -0.013054831 0.76157147
0.094089679 -0.015662199 0.76353848
0.12655966 -0.015637057 0.76748508
0.13259318 -0.015834386 0.76321048
-0.0038756933 -0.0059660454 0.76673925
0.0026263951 -0.0037341502 0.7629047
0.078891426 -0.0021914286 0.76700002
0.084512286 -0.0052358094 0.76435
0.0055260323 0.0021907142 0.76587504
0.013930343 0.0051221219 0.7641142
0.02244 0.007912593 0.76288897
0.055996545 0.0081882253 0.76263648
0.065444887 0.0068315477 0.76462501
0.07374429 0.0025511906 0.76475006
0.080561906 0 0.76900005
0.017370714 0.011155 0.76800001
0.025189366 0.01205135 0.76670837
0.035226662 0.012214433 0.76446152
0.045180082 0.012958502 0.76584858
0.05472381 0.012022685 0.76704556
0.061845716 0.011528334 0.76850003
-0.043271173 -0.10283741 0.77127278
-0.042720418 -0.095360987 0.77339143
-0.039449528 -0.093598098 0.77183336
-0.04223429 -0.08891429 0.77800006
-0.035570249 -0.085445896 0.77342862
-0.03182143 -0.076537937 0.77400005
-0.02869381 -0.072650954 0.7725001
-0.026226906 -0.06768465 0.77568752
-0.017654151 -0.021435104 0.77228576
0.11706033 -0.021343917 0.77577794
0.12131334 -0.021321908 0.77200007
-0.015185094 -0.015182113 0.77347833
0.11592586 -0.014681197 0.77613956
0.12231831 -0.01379519 0.77321059
-0.011167892 -0.00737279 0.77428573
-0.0070952391 -0.0038798272 0.77300006
0.083708577 -0.0014685716 0.77100009
0.10919112 -0.0059034927 0.77466673
0.11429801 -0.0069858013 0.77563643
0.12268192 -0.0088685714 0.77600002
-0.0029560002 0.0014800001 0.77560002
0.0036789617 0.0062946328 0.77322721
0.011014286 0.0088114291 0.77100003
0.068288572 0.0088114291 0.77100003
0.075769395 0.0057965992 0.77400005
0.08173468 0.0028053334 0.77319998
0.0062490846 0.011593116 0.77561545
0.014536191 0.014120204 0.7743215
0.02507801 0.016966581 0.77436364
0.035047706 0.017430395 0.77369577
0.045169663 0.018111294 0.77385724
0.054802764 0.017116858 0.77450007
0.065114364 0.01389857 0.77470845
0.073497988 0.011181799 0.77688897
0.037738096 0.020720001 0.77700007
0.044390857 0.020714669 0.7768001
-0.042387579 -0.084908031 0.78666663
-0.037618876 -0.082676888 0.78145462
-0.041147429 -0.076138109 0.78840005
-0.036176395 -0.074408427 0.783871
-0.033436522 -0.066273466 0.78695637
-0.025435513 -0.063694641 0.78553587
-0.030808572 -0.05861143 0.78900003
-0.024442993 -0.058174878 0.78795236
-0.0208 -0.0208 0.78000003
0.11217143 -0.0208 0.78000003
-0.021050612 -0.015946668 0.78142869
-0.017988399 -0.012981473 0.78109103
0.099188581 -0.012022858 0.78900003
0.10540681 -0.014013615 0.78472513
0.11081733 -0.015270996 0.78045464
-0.014249857 -0.0050722985 0.78547829
-0.0089199999 -0.0022295238 0.78050005
0.10507482 -0.006783443 0.78511548
-0.012676684 0.0046707578 0.78796291
-0.0059254756 0.0054131546 0.78343755
0.00049523811 0.0084228572 0.7803334
-0.012022858 0.01052 0.78900003
-0.0035494375 0.011871343 0.78790909
0.004267415 0.015383538 0.78500003
0.013620076 0.018428277 0.78115392
0.022285715 0.019314285 0.78000009
0.05794286 0.019314285 0.78000009
0.066375509 0.017842315 0.7805714
0.072205715 0.014262858 0.78000003
0.006762858 0.02179143 0.78900003
0.01580343 0.022009399 0.78780001
0.025895391 0.023081252 0.78553855
0.035046272 0.025159996 0.78491193
0.045106977 0.023700954 0.78526318
0.054394789 0.023176298 0.78203708
0.062843814 0.021145524 0.78180009
-0.045142859 -0.085771434 0.79000002
-0.042885713 -0.078247622 0.79000002
-0.040628571 -0.069219045 0.79000002
-0.036695801 -0.063725941 0.79105884
-0.032994132 -0.055326626 0.7945599
-0.027333336 -0.054312095 0.79384613
-0.031160001 -0.048640002 0.79800004
0.097389214 -0.011043811 0.79066676
0.096327357 -0.0060474826 0.79421437
0.10197829 -0.0031645715 0.792
-0.015047619 0 0.79000002
0.10287469 0.0013672382 0.79660004
-0.012790477 0.012038096 0.79000002
0.0040126983 0.018558731 0.79000008
0.0082761906 0.024828572 0.79000002
0.015260001 0.02583543 0.7931
0.024092248 0.027428575 0.79057145
0.030847618 0.028590476 0.79000002
0.045190588 0.027291881 0.79082352
0.039123811 0.030095238 0.79000002
0.044598099 0.030234924 0.79366672
-0.034438096 -0.051504761 0.80000001
-0.025534524 -0.051071182 0.80037504
-0.032998413 -0.045464762 0.80161124
-0.02545608 -0.046163745 0.8019259
0.09379334 -0.0021346665 0.80070013
0.088450871 0.0041544763 0.80760002
0.094879337 0.0045943628 0.80344903
0.10237714 0.0056707482 0.80135733
0.096840017 0.010760001 0.8070001
