# .PCD v0.7 - Point Cloud Data file format
VERSION 0.7
FIELDS x y z
SIZE 4 4 4
TYPE F F F
COUNT 1 1 1
WIDTH 525
HEIGHT 1
VIEWPOINT 0 0 0 1 0 0 0
POINTS 525
DATA ascii
-0.028313335 -0.13243334 0.95900005
-0.034445718 -0.12108192 0.95900011
-0.026600834 -0.12318583 0.95899987
-0.052745 -0.113025 0.95900005
-0.044388004 -0.11361869 0.95899981
-0.034706671 -0.11508 0.95899975
-0.024617145 -0.11490002 0.95749986
-0.016606063 -0.11391759 0.95899999
-0.060280003 -0.10138 0.95900005
-0.054308213 -0.10454156 0.95899981
-0.044753332 -0.10503335 0.95899975
-0.034706675 -0.10503337 0.95899981
-0.024588414 -0.10473172 0.95624989
-0.015187353 -0.10434895 0.95839989
-0.0091333333 -0.10046667 0.95900005
-0.061193343 -0.09498667 0.95900005
-0.054800004 -0.094986655 0.95899975
-0.044698291 -0.094871044 0.95779991
-0.034665525 -0.094881751 0.95791978
-0.024908027 -0.094884649 0.95599991
-0.014969097 -0.094481558 0.95592576
-0.0081089949 -0.093874715 0.958
-0.061584771 -0.084418096 0.95899993
-0.05475029 -0.084863044 0.95809978
-0.044992324 -0.085344292 0.9559353
-0.034650866 -0.085215524 0.95562947
-0.02544 -0.0854057 0.95400029
-0.015212468 -0.085006744 0.95509094
-0.0072971424 -0.084851429 0.95799989
-0.064064384 -0.074436873 0.95875984
-0.054643195 -0.074678481 0.95623982
-0.045269933 -0.075142726 0.95471448
-0.035583347 -0.075325847 0.95457155
-0.025440006 -0.075411446 0.95400041
-0.015705628 -0.075069465 0.95490921
-0.0079579223 -0.075118966 0.95763636
-0.064672761 -0.064930454 0.95831406
-0.05462857 -0.064643815 0.95599985
-0.045693334 -0.064929105 0.95542866
-0.035436448 -0.065421984 0.95406705
-0.02544 -0.065417148 0.95400029
-0.015229762 -0.065136075 0.95487511
-0.0072971424 -0.064779043 0.95799989
-0.07124 -0.052060001 0.95900005
-0.064815246 -0.054771438 0.95849985
-0.054628566 -0.054628558 0.95599991
-0.045237679 -0.054930646 0.95418537
-0.035333809 -0.055267319 0.95133346
-0.02544 -0.055422869 0.95400041
-0.015666779 -0.055189244 0.95458841
-0.007426939 -0.054999728 0.95792854
-0.07124 -0.044753335 0.95900005
-0.064667046 -0.044846747 0.95822829
-0.054628573 -0.044613335 0.95599985
-0.045272443 -0.044387288 0.95438719
-0.035325009 -0.04467554 0.95462853
-0.025076913 -0.044760469 0.95448297
-0.015204034 -0.044814963 0.95576465
-0.0084026661 -0.045484003 0.95900005
-0.061903708 -0.03653333 0.95900005
-0.054766629 -0.034682896 0.95839977
-0.044628575 -0.034607999 0.95629984
-0.034598093 -0.03459809 0.95599991
-0.024654778 -0.035076883 0.95557576
-0.014575159 -0.034618672 0.95659989
-0.0091333333 -0.035620004 0.95900005
-0.054394081 -0.024964442 0.95899975
-0.044746187 -0.024654917 0.95883304
-0.034673721 -0.024633341 0.95809978
-0.024601748 -0.024599211 0.95666653
-0.016012803 -0.025743596 0.95783329
-0.051755559 -0.017657779 0.95900005
-0.044753339 -0.017353334 0.95899999
-0.034858894 -0.016896669 0.95899999
-0.02490381 -0.016949661 0.95835721
-0.018266667 -0.018266667 0.95900005
-0.051573336 -0.16024572 0.96700007
-0.047889527 -0.16024572 0.96700013
-0.024865717 -0.16024572 0.96700007
-0.053970832 -0.15546478 0.96662503
-0.045681536 -0.15425737 0.96676964
-0.036607858 -0.15218738 0.96700007
-0.024690574 -0.15447535 0.96627623
-0.015455351 -0.15313491 0.9645294
-0.0069583077 -0.15328741 0.96700013
-0.051573336 -0.14643143 0.96700007
-0.045126658 -0.14551049 0.96700048
-0.035149697 -0.145357 0.96700037
-0.024800068 -0.14513208 0.96446705
-0.015472002 -0.14606303 0.96700019
-0.060782861 -0.13169619 0.96700007
-0.054566436 -0.1346893 0.96700037
-0.045090836 -0.13527025 0.96619493
-0.034860004 -0.13485157 0.96320009
-0.024300124 -0.13504048 0.96293765
-0.015214656 -0.13475731 0.96607733
-0.0073676198 -0.13077524 0.96700013
-0.063422441 -0.12449101 0.96666676
-0.055141252 -0.12498829 0.96496016
-0.044947241 -0.12474591 0.96310019
-0.034917042 -0.12582351 0.96200001
-0.022512112 -0.1257799 0.96200001
-0.014689524 -0.12488917 0.9642002
-0.0055234293 -0.12521914 0.96676034
0 -0.12586351 0.96700013
-0.065060459 -0.1147975 0.9661181
-0.05598364 -0.11649659 0.96270597
-0.04562629 -0.11837181 0.96200001
-0.013099319 -0.11646123 0.96285713
-0.0055148569 -0.11496479 0.96570045
0 -0.11972381 0.96700007
-0.072202675 -0.10351505 0.96700013
-0.065551706 -0.10491567 0.96450025
-0.058178104 -0.10856858 0.96200007
-0.011727239 -0.10847696 0.96200007
-0.0053565875 -0.10490724 0.96483362
0 -0.10130477 0.96700007
-0.073445961 -0.094397627 0.96700007
-0.066939823 -0.095363915 0.96280003
-0.0040148813 -0.096038327 0.96381241
0.00092095241 -0.094800383 0.96640009
-0.081043817 -0.081043817 0.96700007
-0.075149342 -0.084430248 0.96634817
-0.067177668 -0.085595518 0.96263647
-0.002751746 -0.085322544 0.96333331
0.001594413 -0.084656522 0.96480006
-0.081043825 -0.076132074 0.96700013
-0.075325795 -0.075322747 0.96448016
-0.06889753 -0.077326484 0.96200007
-0.0035379594 -0.074977428 0.96342862
0.0024552383 -0.075119048 0.96583349
-0.081043817 -0.065387629 0.96700013
-0.075253278 -0.065154299 0.9635669
-0.069630481 -0.060468573 0.96200007
-0.0027530163 -0.065163493 0.96366668
0.0025111691 -0.065314904 0.96590936
-0.081043817 -0.055257142 0.96700013
-0.075631566 -0.055343188 0.96430451
-0.003000173 -0.054690223 0.9629091
0.0027614289 -0.055171438 0.96550018
-0.081043817 -0.04604762 0.96700013
-0.07586477 -0.04499349 0.96415406
-0.069630481 -0.040312383 0.96200007
-0.0040346673 -0.044582866 0.96320003
0.0021324314 -0.045635797 0.96652645
-0.074781962 -0.035373975 0.96538121
-0.066355385 -0.034049347 0.96257138
-0.0048039006 -0.034689255 0.96338111
0.0011721213 -0.035331082 0.96700013
-0.073404178 -0.025310121 0.96643752
-0.065131739 -0.024765557 0.96316701
-0.0586362 -0.021988574 0.96200007
-0.012521271 -0.023057465 0.96200001
-0.0056369128 -0.024969988 0.96496582
0 -0.028549526 0.96700007
-0.072448261 -0.017805083 0.96700013
-0.064981177 -0.015118378 0.96548182
-0.055419918 -0.01424918 0.96254539
-0.044893339 -0.012826667 0.96200001
-0.034679271 -0.012546522 0.96215385
-0.024514526 -0.012600477 0.96224999
-0.014525715 -0.014524761 0.96333349
-0.0075096837 -0.015788732 0.9657501
-0.061519623 -0.0077360007 0.96700013
-0.054943603 -0.0058356109 0.96569592
-0.04506648 -0.0055148569 0.96570045
-0.034910172 -0.0055082664 0.96468014
-0.024798291 -0.00550819 0.96440041
-0.015760954 -0.0066719055 0.96643752
-0.0092095248 -0.0092095248 0.96700007
-0.053415239 0 0.96700013
-0.04420571 0.0043824632 0.96700042
-0.035965621 0.0052348878 0.96700019
-0.024681527 0.0020874923 0.96700013
-0.042707052 0.011411811 0.96640009
-0.035367411 0.011856721 0.96600014
-0.077308573 -0.16020572 0.97800004
-0.044342857 -0.16074285 0.97000003
-0.073156193 -0.15560654 0.97642863
-0.064975299 -0.15415943 0.9725185
-0.057686772 -0.15376297 0.97000015
-0.041571431 -0.15797144 0.97000003
-0.034576874 -0.15585987 0.97000027
-0.0026402723 -0.15289062 0.97042865
0.0034583679 -0.1526196 0.9762857
-0.071633145 -0.14512458 0.97679996
-0.064797409 -0.14440095 0.97191989
-0.056312218 -0.14531925 0.96999997
-0.031409524 -0.14965715 0.97000003
-0.011877551 -0.14279458 0.97000015
-0.0056785545 -0.14518423 0.97206885
0.003216364 -0.14518493 0.97663647
-0.080102861 -0.13133144 0.97800004
-0.07386893 -0.13488503 0.97613639
-0.065051839 -0.13524491 0.97091293
-0.058200002 -0.13764761 0.97000003
-0.011085714 -0.13764761 0.97000003
-0.0052948054 -0.13553412 0.97109085
0.0029234469 -0.13534087 0.97523808
-0.081779435 -0.12481143 0.9780001
-0.07433214 -0.12455837 0.97310001
-0.067306124 -0.12748572 0.97000015
0.0045048348 -0.12466595 0.97461551
-0.083587356 -0.11508001 0.97671437
-0.075715303 -0.11495373 0.97219223
0.0046430477 -0.11493526 0.97323334
-0.084696524 -0.10483985 0.97633338
-0.076862589 -0.10559492 0.97176188
0.0050215661 -0.10527878 0.97187072
0.011786668 -0.10421524 0.97700012
-0.085435972 -0.094715036 0.97500008
-0.078026377 -0.095365584 0.97000021
0.0061202482 -0.095123395 0.97178262
0.012098285 -0.094916575 0.97710007
-0.091279998 -0.08476001 0.9780001
-0.085443258 -0.085438594 0.97333348
-0.079447627 -0.087761909 0.97000003
0.0071895244 -0.085545599 0.97368765
0.012108572 -0.084760003 0.97800004
-0.092045717 -0.074051425 0.97733337
-0.085773796 -0.07501363 0.97238457
0.0079453075 -0.075589523 0.97300017
0.013470254 -0.074351609 0.97729415
-0.091838583 -0.065797143 0.97650003
-0.086113632 -0.064812772 0.97220004
0.0078741275 -0.06497667 0.97233343
0.014387013 -0.065239228 0.97731829
-0.091279998 -0.056817148 0.97800004
-0.086360589 -0.054907415 0.97360879
0.0083228573 -0.055481713 0.97090006
0.013648981 -0.05547275 0.97695255
-0.091279998 -0.041914284 0.97800004
-0.085768238 -0.044523209 0.97209102
0.00740381 -0.044734456 0.97147065
0.011987302 -0.045049317 0.97644448
-0.091279998 -0.038188573 0.97800004
-0.085380964 -0.035259962 0.97439998
-0.078985721 -0.032795239 0.97000003
0.0066383961 -0.035020247 0.97310531
0.011177143 -0.037257146 0.97800004
-0.084633343 -0.025108334 0.97650015
-0.078180544 -0.024429666 0.9706431
-0.0018476191 -0.020323809 0.97000003
0.0034834126 -0.025278412 0.97412503
-0.083670862 -0.015764955 0.97759998
-0.075768605 -0.014463039 0.9724285
-0.067438096 -0.011085714 0.97000003
-0.0036994871 -0.013806302 0.9715386
0.0015758243 -0.015316484 0.97707701
-0.080102861 -0.0093142865 0.97800004
-0.073315963 -0.0064544543 0.97658819
-0.065475039 -0.0049916194 0.97100002
-0.058200002 -0.0018476191 0.97000003
-0.012945396 -0.0034924869 0.97100002
-0.0054115877 -0.0054124608 0.97483343
0.00093142863 -0.0093142865 0.97800004
-0.071161143 0.0022354287 0.9780001
-0.064835466 0.0044825622 0.97441387
-0.055680014 0.005138624 0.97077751
-0.049093883 0.0055428576 0.97000015
-0.033425111 0.003527273 0.97000021
-0.025087349 0.0064275735 0.97057134
-0.014842413 0.0046434919 0.97429997
-0.0073059346 0.0025793409 0.97776926
-0.063337147 0.011177143 0.97800004
-0.05930667 0.011120001 0.97300005
-0.048961908 0.011085714 0.97000003
-0.024322722 0.011372245 0.97185725
-0.014872 0.012086286 0.97620004
-0.084518299 -0.1549364 0.98600012
-0.077869289 -0.15339501 0.98212498
0.0087390486 -0.15228763 0.98300004
0.015383897 -0.1519666 0.98718196
0.022113809 -0.15196334 0.98800004
-0.084528022 -0.14497983 0.98795843
-0.076775007 -0.14512001 0.98306257
0.008601143 -0.14452688 0.98159999
0.01465151 -0.14530645 0.98699999
0.021098666 -0.14656039 0.98900002
-0.09098985 -0.13240573 0.9883334
-0.084692337 -0.13522768 0.98421735
-0.078480005 -0.13640574 0.98100013
0.0084228581 -0.13474286 0.98250008
0.012697302 -0.13542828 0.98750013
-0.092543498 -0.12516794 0.98816675
-0.086990364 -0.12533785 0.98212498
0.009361906 -0.12732384 0.98300004
0.01465246 -0.12510383 0.98704171
-0.093728065 -0.11426594 0.98715395
-0.088670008 -0.11578572 0.98175001
0.014962053 -0.11516338 0.98619235
-0.093819812 -0.1050757 0.98506677
-0.089317724 -0.10576115 0.98100007
0.016443698 -0.10536908 0.98470598
0.020721905 -0.10172572 0.98900002
-0.094832927 -0.095361903 0.9844287
0.016824763 -0.095337152 0.98140007
0.021679483 -0.095244162 0.98572743
-0.09630803 -0.084776059 0.98490483
0.016825715 -0.085065722 0.98150009
0.02140343 -0.085417911 0.98560011
-0.097333089 -0.075282268 0.98500007
0.017984999 -0.074976437 0.98100001
0.020617144 -0.077782862 0.98400003
-0.10172572 -0.061223812 0.98900002
-0.097188897 -0.064998098 0.98433346
0.018685717 -0.064777151 0.98100013
-0.10172572 -0.054630484 0.98900002
-0.09599299 -0.054773714 0.98347992
0.017855238 -0.053773336 0.98100007
0.021349844 -0.055258416 0.98900002
-0.095553249 -0.04561248 0.98550004
0.01663262 -0.044730715 0.98368764
0.020721905 -0.045211431 0.98900002
-0.095265046 -0.034819525 0.98545009
0.014845907 -0.035504766 0.98630011
0.020721905 -0.037676193 0.98900002
-0.094353378 -0.025082177 0.98409534
-0.089691445 -0.025225718 0.98100007
0.0084171435 -0.023938287 0.98190004
0.012233334 -0.024464762 0.98800004
-0.09224055 -0.015814422 0.98542863
-0.08736261 -0.013596364 0.98154545
0.0070594964 -0.014660168 0.98382366
0.01177381 -0.017425239 0.98900002
-0.08422 -0.0060995244 0.98580009
-0.077078573 -0.003737143 0.98100001
0.0026767352 -0.0061497968 0.98228574
-0.081740409 0.0024214969 0.98814297
-0.075587966 0.0051738666 0.98320013
-0.069137141 0.0093428576 0.98100007
-0.0044417861 0.006080715 0.98193753
0.00046714288 0.0014014286 0.98100007
-0.075175248 0.011275428 0.98660004
-0.068202853 0.01121143 0.98100007
-0.0069148578 0.012709716 0.98130006
-0.093438871 -0.15370733 0.99299997
-0.092984289 -0.14585857 0.99368739
-0.08880762 -0.14360382 0.99200004
0.018284446 -0.1412254 0.99300003
0.023431113 -0.14247683 0.99733341
-0.093202859 -0.13561779 0.99349999
0.017339049 -0.13563283 0.9943077
0.021453608 -0.13415293 0.99800014
0.079839997 -0.1321162 0.99800003
0.082374603 -0.13179937 0.99800003
-0.10126743 -0.12326362 0.99560004
-0.097021721 -0.12482172 0.99290001
0.018895239 -0.1265981 0.99200004
0.022299049 -0.12477095 0.99625009
0.078572705 -0.12419556 0.99800003
0.082691431 -0.12546286 0.99800009
-0.10138971 -0.11562742 0.99680007
-0.097757839 -0.11611892 0.99242866
0.023844354 -0.11540516 0.99557149
0.076717004 -0.11324246 0.99800014
0.083083808 -0.11536952 0.99700016
-0.10086539 -0.10371112 0.99600005
-0.098314673 -0.10587963 0.99260008
0.023415463 -0.10546275 0.99499995
0.075263634 -0.1046932 0.99799979
0.081740953 -0.10835429 0.99800003
-0.10142781 -0.094793342 0.99529999
0.065012574 -0.092006095 0.99800009
0.078889519 -0.09884952 0.99800003
-0.10303516 -0.085630313 0.995
0.022674287 -0.081249528 0.99200004
0.057662226 -0.08300826 0.99800009
0.064805187 -0.085456453 0.99799991
-0.10411481 -0.075683936 0.99500006
0.055222664 -0.074878827 0.99737912
0.062163115 -0.076670133 0.99718189
-0.10322371 -0.065591745 0.9933334
0.036898531 -0.062076364 0.99581826
0.045622859 -0.063531816 0.99800003
0.054295957 -0.065582857 0.99800009
-0.10392381 -0.054796189 0.99200004
0.025112381 -0.052581429 0.99474996
0.035101146 -0.055023629 0.99610019
0.044862479 -0.056775119 0.99800014
0.051325716 -0.058929525 0.99800003
-0.10144143 -0.044687863 0.99312508
0.025565147 -0.045444008 0.99410009
0.033722088 -0.046285532 0.99671417
-0.10126954 -0.035017144 0.99374998
0.017275646 -0.031582043 0.9920001
0.024983702 -0.03464127 0.99200016
0.031281143 -0.036021527 0.99529999
-0.10077143 -0.026968572 0.99350005
0.01702019 -0.024581337 0.9928
0.023718609 -0.026115051 0.99360001
-0.092586666 -0.011337143 0.99200004
-0.092276022 -0.0065404335 0.99418181
-0.087457627 -0.0023633335 0.99275005
-0.090971433 0 0.99500006
-0.08580213 0.0043448745 0.9944706
0.055624768 -0.15248859 1.0070001
-0.10165906 -0.14098001 1.0070001
-0.097940952 -0.14372952 1.0016667
0.027689526 -0.14225952 1.0025001
0.030689526 -0.14289811 1.0070001
0.067544363 -0.14426818 1.0070001
0.073564574 -0.14503011 1.0058
-0.10173867 -0.13425028 1.0040001
-0.098061524 -0.13621943 1.0016001
0.02622286 -0.13552193 1.0021054
0.033801813 -0.13337646 1.00535
0.0682294 -0.13563675 1.0070001
0.074459113 -0.13491042 1.0033332
0.080200002 -0.1365324 1.0025001
-0.10304979 -0.12594369 1.0018573
-0.099146672 -0.12965333 1.001
0.026999859 -0.12560514 1.0014617
0.034346059 -0.12402453 1.0017198
0.07557334 -0.12705334 1.0010002
-0.10540649 -0.11362972 1.0043
0.028600002 -0.11440001 1.001
0.033805199 -0.11441506 1.0011364
0.077220008 -0.11630668 1.001
0.080715559 -0.11757779 1.0010002
-0.10582215 -0.10509966 1.004375
0.027844086 -0.10645389 1.003143
0.034744676 -0.10588615 1.0057727
0.068640009 -0.10200666 1.001
0.073724449 -0.10359555 1.0010002
0.081986673 -0.10677334 1.001
-0.1072168 -0.095260121 1.0040001
0.068322234 -0.095333338 1.001
0.074201114 -0.095174432 1.0009999
0.080080003 -0.097240001 1.001
-0.11124954 -0.082478099 1.0070002
-0.10788953 -0.084972389 1.0024999
0.068640009 -0.081033334 1.001
0.07316573 -0.087334834 1.0014287
-0.11124954 -0.074805714 1.0070001
-0.1083679 -0.073702052 1.003143
0.047851954 -0.072992563 1.0012728
-0.11124954 -0.067133337 1.0070002
-0.10795466 -0.064960957 1.0031
0.046522673 -0.068258673 1.001
0.05338667 -0.062920004 1.0010002
-0.10808438 -0.055474486 1.0043
0.0286 -0.0572 1.001
0.041946668 -0.051479999 1.001
-0.10698421 -0.044658042 1.0040001
-0.10657421 -0.035410389 1.0023638
-0.095333338 -0.01144 1.001
0.034307938 -0.15037778 1.0100001
0.04454245 -0.15190724 1.0104288
0.054104757 -0.15115331 1.0109001
0.063806355 -0.15069841 1.0100001
-0.10419428 -0.14182 1.013
0.028942857 -0.14857332 1.013
0.035365805 -0.14439797 1.010143
0.044336081 -0.14455886 1.0119202
0.055006906 -0.1457312 1.0133753
0.063100956 -0.14505522 1.0100001
-0.10419428 -0.13892572 1.013
0.036231749 -0.13787302 1.0100001
0.041605715 -0.13752459 1.0112001
0.065409526 -0.13851428 1.01
-0.11030857 -0.12192 1.016
-0.10837334 -0.12192 1.016
-0.12144817 -0.11396164 1.0190001
-0.11558657 -0.11423218 1.0164502
-0.10933851 -0.11650285 1.0121429
-0.12356069 -0.10381801 1.017909
-0.11576039 -0.1045356 1.0141541
-0.10965714 -0.10773333 1.01
0.028857142 -0.1019619 1.01
0.032704763 -0.1019619 1.01
0.040399998 -0.10580952 1.01
-0.13004382 -0.092195243 1.0190001
-0.12468635 -0.094644777 1.0174999
-0.11577601 -0.094546668 1.0130004
-0.12556627 -0.085002594 1.0142002
-0.11622208 -0.085106075 1.0123185
-0.12493161 -0.075581312 1.0150001
-0.1165662 -0.075139992 1.0115002
-0.12482768 -0.066084817 1.0172632
-0.11625378 -0.065313436 1.0125912
-0.12309016 -0.058644127 1.0150001
-0.11571623 -0.054963797 1.0125004
-0.10965714 -0.050019048 1.01
-0.11427073 -0.045373842 1.0122001
-0.11158095 -0.038476191 1.01
-0.1334302 -0.15510912 1.028
-0.12797524 -0.15337549 1.02575
-0.13119237 -0.14881523 1.028
-0.1255139 -0.14470325 1.028
-0.11944381 -0.1419619 1.028
-0.13435546 -0.13299985 1.028
-0.12512952 -0.1349065 1.0264399
-0.11579209 -0.13389325 1.0257894
-0.10855239 -0.13237143 1.0250001
-0.13465136 -0.12520795 1.0257499
-0.12492382 -0.12492406 1.0247598
-0.11554345 -0.12522517 1.0251304
-0.10867923 -0.1274461 1.0262001
-0.13362579 -0.11522478 1.0253156
-0.12609357 -0.11543105 1.023059
-0.13317847 -0.10580906 1.0263124
-0.12752424 -0.10630624 1.0230001
-0.13245238 -0.096756957 1.0241002
-0.12866858 -0.098452389 1.0235001
-0.15026288 -0.16113716 1.0380001
-0.14482573 -0.16113716 1.0380001
-0.15026288 -0.1561943 1.0380001
-0.14466107 -0.15422615 1.0373685
-0.13793819 -0.15493472 1.0331819
-0.14218953 -0.14515525 1.0380001
-0.13498206 -0.14544089 1.033316
-0.126993 -0.14466731 1.031
-0.11979239 -0.14532191 1.031
-0.14235429 -0.1384 1.0380001
-0.13642207 -0.13789493 1.0317502
-0.11782857 -0.13943048 1.031
-0.16061142 -0.16061142 1.041
-0.1556543 -0.16160285 1.041
-0.14474858 -0.16259429 1.041
-0.16061142 -0.15862857 1.041
-0.15520364 -0.1543925 1.0410002
-0.14871427 -0.15168858 1.041
-0.15331101 -0.14792572 1.0414286
-0.1469793 -0.14549214 1.041
