# .PCD v0.7 - Point Cloud Data file format
VERSION 0.7
FIELDS x y z
SIZE 4 4 4
TYPE F F F
COUNT 1 1 1
WIDTH 1405
HEIGHT 1
VIEWPOINT 0 0 0 1 0 0 0
POINTS 1405
DATA ascii
0.1785605 0.062178336 0.76137507
0.18161239 0.064161427 0.76125002
0.066254042 0.074154474 0.76786679
0.074457735 0.074459821 0.76648974
0.084583215 0.074903466 0.76441878
0.094411209 0.075103305 0.76173782
0.10170826 0.076583192 0.7610001
0.17832519 0.077874832 0.76114297
0.18409118 0.075278364 0.76400006
0.068257913 0.081733719 0.76900005
0.074764378 0.081863821 0.76815009
0.085349143 0.084001482 0.76695019
0.094393559 0.085061632 0.76337993
0.10460693 0.084998772 0.76276165
0.11419193 0.086190358 0.76176655
0.1238777 0.088360302 0.76109993
0.13118191 0.089870483 0.76100004
0.17719014 0.085190319 0.7639091
0.18276756 0.083788924 0.7662273
0.088325217 0.094761662 0.7677334
0.093914613 0.095296644 0.76662862
0.1062777 0.094626784 0.76745975
0.11516853 0.094929114 0.76597917
0.12510546 0.095290489 0.76373804
0.13377228 0.095776625 0.76224124
0.15582383 0.09856762 0.7610001
0.16660777 0.097086146 0.7616154
0.1755555 0.095234729 0.76525652
0.18171664 0.094796337 0.76746166
0.088699482 0.10367259 0.76900005
0.095496997 0.10459486 0.76787817
0.10521051 0.10521054 0.76716316
0.11534619 0.10512754 0.76655096
0.12534414 0.10494195 0.76520413
0.13341573 0.10401935 0.76212478
0.14643376 0.10541676 0.76479989
0.15483901 0.10503696 0.765396
0.16475536 0.10420418 0.76579487
0.1737143 0.10290457 0.76773691
0.099603817 0.11132191 0.76900005
0.10106858 0.11132191 0.76900005
0.12637238 0.11103238 0.76700002
0.135847 0.11122984 0.76416671
0.14444339 0.11357664 0.76668197
0.15553109 0.11185455 0.76900005
0.019140953 -0.020613333 0.77300006
0.019145079 -0.015463176 0.77316678
0.022289123 -0.013390576 0.77205265
0.02554626 -0.0072534699 0.77271438
0.031886987 -0.0024533335 0.77266669
0.035429049 0.0057213102 0.77512503
0.039348572 0.010821588 0.77466673
0.044637881 0.014335979 0.77399999
0.052440953 0.01826762 0.77340007
0.057372641 0.024338849 0.77547365
0.064033613 0.026545303 0.77410716
0.075379439 0.027422221 0.77393335
0.085078195 0.027895233 0.77457148
0.095045656 0.027123127 0.77407157
0.1031143 0.025438095 0.77406251
0.11014286 0.022028573 0.77100003
0.085209534 0.031120002 0.77800006
0.090396196 0.031120002 0.77800006
0.11688763 0.048827432 0.7768001
0.12498859 0.048072115 0.77657145
0.13525333 0.04738827 0.77494735
0.14501125 0.047201626 0.77565008
0.15507016 0.047126092 0.77486676
0.1641468 0.046658818 0.77462494
0.17596345 0.047491815 0.77440006
0.18129906 0.048099048 0.77700007
0.048161909 0.059276193 0.77800006
0.05511678 0.058533635 0.7772308
0.065925822 0.057675187 0.77642107
0.075231008 0.056230538 0.77445477
0.085329838 0.055766653 0.77383798
0.09456744 0.054292858 0.77380657
0.10498144 0.053908311 0.77471441
0.11446454 0.052878272 0.77315164
0.12457059 0.051022265 0.77225
0.13528383 0.050730474 0.77200001
0.14504857 0.051198218 0.77212501
0.15103367 0.050507303 0.77233338
0.18336573 0.050276827 0.77633345
0.028897144 0.069649525 0.77800006
0.037683386 0.067058831 0.77755553
0.044952977 0.06510736 0.77564305
0.054515138 0.064827994 0.77355099
0.063664429 0.063662805 0.77202946
0.073451437 0.060598094 0.77125001
0.082974285 0.060211431 0.77100003
0.028897144 0.071131431 0.77800006
0.03687901 0.073376402 0.77721739
0.045066625 0.075104386 0.77421969
0.054470871 0.075085305 0.7729184
0.061627571 0.075625062 0.77131575
0.044675633 0.082127973 0.7772941
0.055123605 0.084436685 0.775778
0.06453272 0.085374579 0.77310014
0.07488966 0.087364651 0.77196562
0.082474291 0.088518105 0.77166671
0.058535241 0.090396196 0.77800006
0.065659955 0.092378162 0.77694738
0.075335965 0.09528546 0.77554792
0.083869949 0.095152788 0.77344841
0.098220967 0.096121363 0.77128577
0.10212115 0.096536003 0.77180004
0.18357143 0.09839429 0.77100003
0.066481307 0.10429545 0.77799994
0.07537517 0.10493909 0.77595937
0.084366873 0.10491672 0.7735002
0.093254291 0.10867429 0.77100003
0.16888571 0.10867429 0.77100003
0.17648099 0.10706476 0.77247059
0.18380062 0.10470139 0.77618188
0.085696332 0.11081633 0.77571434
0.094511807 0.11147125 0.77410012
0.10587429 0.112287 0.77566671
0.11563217 0.11346085 0.7753529
0.12511055 0.11515191 0.77503592
0.13510863 0.11631299 0.77362072
0.1454196 0.11789361 0.77228582
0.15457863 0.11686315 0.77289665
0.16507439 0.11496299 0.77332622
0.17377883 0.11378834 0.77499998
0.18079239 0.11114287 0.77800006
0.12892573 0.12003429 0.77800006
0.13496302 0.12142668 0.77742857
0.14520521 0.12286843 0.77513039
0.15493737 0.12257868 0.77580005
0.16423458 0.1223056 0.77628577
0.17208621 0.12096049 0.778
0.036400001 0.0089142863 0.78000003
0.046506945 0.018688165 0.78042871
0.049091429 0.020826666 0.78100002
0.052952196 0.022758475 0.78090012
0.067411438 0.029739683 0.78066671
0.074341714 0.029737145 0.78060001
0.10662064 0.028429685 0.78558338
0.06805753 0.032381713 0.78700006
0.075195096 0.035093475 0.78722495
0.084888205 0.035676394 0.78302795
0.095105641 0.035000816 0.78313541
0.10483053 0.035092402 0.78710818
0.14728001 0.039074287 0.78900003
0.15552668 0.037821066 0.7855556
0.16510276 0.037333537 0.78573686
0.17451942 0.037842855 0.78687489
0.18313389 0.038430206 0.78900009
0.065316513 0.049552388 0.78833342
0.076473437 0.045861449 0.78822559
0.085345209 0.044962779 0.78695846
0.095000632 0.044934504 0.78644186
0.10478353 0.045034658 0.78658313
0.11421031 0.046265196 0.78551865
0.1251647 0.045713559 0.78592318
0.13534336 0.043963715 0.78514999
0.14542341 0.042672761 0.78451997
0.15430236 0.041887861 0.78056526
0.16522095 0.042295378 0.78066677
0.17538199 0.042964634 0.78171432
0.18422557 0.044507653 0.78325826
0.015462022 0.058948461 0.78724992
0.025706794 0.057261389 0.78648382
0.035099305 0.056112427 0.78511131
0.044480212 0.056162909 0.78350002
0.055353116 0.054070588 0.78417647
0.064962856 0.05319944 0.78166682
0.07483165 0.051488645 0.78092313
0.084163502 0.051192701 0.78091681
0.095085725 0.050514288 0.78000009
0.10550449 0.050523538 0.78014296
0.18744001 0.050579049 0.78100002
-0.01052 0.068379998 0.78900003
-0.004587268 0.067293957 0.78878933
0.004830603 0.064825028 0.78744447
0.015056248 0.065371901 0.78231925
0.025118863 0.065232486 0.78063822
0.033804484 0.064477749 0.78010732
0.041600004 0.060914289 0.78000009
-0.01052 0.073640004 0.78900003
-0.0049820538 0.074668825 0.78857881
0.0044906903 0.07490363 0.7864694
0.014746882 0.075118043 0.78336364
0.025082052 0.075251535 0.7803753
0.034015033 0.076709785 0.77999991
-0.0015028572 0.081154287 0.78900003
0.0058200001 0.082430705 0.78862488
0.015353533 0.084400907 0.78752631
0.025550846 0.084748045 0.78321749
0.034958225 0.084797964 0.78100026
0.04415302 0.086987935 0.78040755
0.052247621 0.088647626 0.78000009
0.017733715 0.090772577 0.78900003
0.02620876 0.094593711 0.78786665
0.035053797 0.095126495 0.7862975
0.044920124 0.095138147 0.78280449
0.05485427 0.09534885 0.78059566
0.064656071 0.097231746 0.78000015
0.017146235 0.10574651 0.78899986
0.025437821 0.10480766 0.78675008
0.035168998 0.10448691 0.78446364
0.044457421 0.10451379 0.78304785
0.055317458 0.10468544 0.78166682
0.062593259 0.10528133 0.78100008
0.18497144 0.1092 0.78000003
0.059286669 0.11107048 0.78800005
0.06579937 0.11129605 0.78516674
0.075813524 0.11390915 0.78579998
0.085562699 0.11571207 0.78808326
0.094805405 0.11701699 0.78591669
0.10508548 0.11693752 0.78370011
0.1138909 0.11769618 0.78105551
0.12212572 0.11856001 0.78000003
0.17817144 0.11658695 0.78042865
0.18369722 0.11555966 0.78463632
0.087917149 0.12022857 0.78900003
0.096729346 0.12186805 0.78900009
0.10549865 0.12402556 0.78775859
0.11532447 0.12454893 0.78552645
0.12491553 0.12470279 0.78377527
0.13498884 0.12645841 0.78166687
0.14455128 0.12755878 0.78064293
0.15481496 0.12791179 0.78039998
0.16518643 0.1272358 0.78072006
0.175476 0.1254034 0.78340751
0.1831685 0.12494087 0.78789997
0.12642036 0.13224129 0.7883749
0.13540009 0.13385905 0.78718179
0.14536496 0.13527916 0.78677785
0.15532631 0.13521841 0.78525025
0.16518266 0.1356734 0.78610533
0.17436209 0.13333654 0.78800005
0.13976572 0.14126857 0.78900003
0.14608464 0.14178917 0.78512496
0.15497813 0.14221336 0.78828567
0.16381143 0.14164428 0.78900003
0.057615243 0.028807621 0.79600006
0.11520063 0.025772698 0.79400009
0.12008001 0.02812 0.79800004
0.16796002 0.02888 0.79800004
0.17480001 0.028880002 0.79800004
0.18088001 0.02888 0.79800004
0.19228001 0.02888 0.79800004
0.058373339 0.030323811 0.79600006
0.064733267 0.035760336 0.79360014
0.070723809 0.038371429 0.79000002
0.10984762 0.036866665 0.79000002
0.11511368 0.03496521 0.79268444
0.12416174 0.036948226 0.79627281
0.13484135 0.037875012 0.79542881
0.14507128 0.035791639 0.79412127
0.1545928 0.033692792 0.79514307
0.16532996 0.032602973 0.79399997
0.17522272 0.032966431 0.79303461
0.18488802 0.034373995 0.79427594
0.1917924 0.034258418 0.79650009
0.019760001 0.048640002 0.79800004
0.021280002 0.048640002 0.79800004
0.046695065 0.049033422 0.79545468
0.054694004 0.048555516 0.79376477
0.065077163 0.044846926 0.79326832
0.072813757 0.043721694 0.79000002
0.10984762 0.040628571 0.79000002
0.11603592 0.041870482 0.79114282
0.1249221 0.04245406 0.79199994
0.1339924 0.041315559 0.79116666
0.14219999 0.040628571 0.79000002
0.18809524 0.040628571 0.79000002
-0.030400002 0.059280004 0.79800004
-0.024397464 0.057903495 0.79720014
-0.014833293 0.057349578 0.79599994
-0.0049883877 0.055894446 0.79593539
0.0044244369 0.05529004 0.79404885
0.015291431 0.053846043 0.79394454
0.024478186 0.051900949 0.79371428
0.034300003 0.050928567 0.79375005
0.04510127 0.051634289 0.79150003
0.051914286 0.051161904 0.79000002
-0.032230303 0.066115677 0.79709107
-0.024965446 0.06505806 0.7943334
-0.0152941 0.064760841 0.79268086
-0.0058343695 0.062587827 0.79139131
0.00075238099 0.06098095 0.79049999
-0.033710711 0.075109646 0.79762518
-0.024967197 0.074901164 0.79438913
-0.015430475 0.075169511 0.79205006
-0.0079000005 0.079376191 0.79000002
-0.030400002 0.081320003 0.79800004
-0.024111956 0.082281485 0.79666692
-0.015185454 0.084936023 0.79527301
-0.0053980961 0.085481688 0.79325712
0.0037098904 0.086703159 0.79161543
0.011661905 0.08840476 0.79000002
-0.011776667 0.093071431 0.79775
-0.0053111119 0.094815567 0.79644436
0.0047359015 0.095068768 0.79469568
0.014765888 0.095431201 0.79154563
0.023108846 0.095874839 0.79000008
-0.02204 0.10412 0.79800004
-0.013746088 0.10335999 0.79800016
-0.0053024334 0.10372763 0.79500008
0.0044301306 0.10464597 0.79386359
0.013053062 0.10358422 0.79085714
0.027085714 0.10984762 0.79000002
0.033104762 0.10984762 0.79000002
0.015178096 0.11082095 0.79700005
0.03868667 0.11302857 0.79650009
0.045607816 0.11283027 0.79536837
0.054779265 0.11490796 0.79461128
0.064691827 0.1168047 0.79293352
0.074056379 0.11787201 0.79133338
0.083514288 0.11887619 0.79000002
0.18809524 0.11812381 0.79000002
0.19104001 0.11901905 0.796
0.056746669 0.12058668 0.79800004
0.066382758 0.12302236 0.79684228
0.075082719 0.12377592 0.79521441
0.084901921 0.12483886 0.79438895
0.094262868 0.12574476 0.7922858
0.10435223 0.12855913 0.79046154
0.11285715 0.12940952 0.79000008
0.18613903 0.12444381 0.79000002
0.19056001 0.12099048 0.79400003
0.088808574 0.1313162 0.79700005
0.096204482 0.13313323 0.79585725
0.10483722 0.13559631 0.79502565
0.11487612 0.1352901 0.79357141
0.12389714 0.13627185 0.79208016
0.13365562 0.13833639 0.79200006
0.17610769 0.1380526 0.7906667
0.18232244 0.13424174 0.79345465
0.10522182 0.1419543 0.7974546
0.11669444 0.14142478 0.79714292
0.12502134 0.14275582 0.79559994
0.13447447 0.14234857 0.79460007
0.14100572 0.1440381 0.79600006
0.1591543 0.14482287 0.79200006
0.16434744 0.14384687 0.79160005
0.17556 0.1596 0.79800004
0.17497882 0.16398118 0.7980001
0.11915429 0.019859049 0.80200005
0.12502979 0.018834978 0.80581826
0.053617146 0.02802508 0.8062501
0.11885715 0.021333333 0.80000001
0.12484714 0.025046557 0.80273521
0.13382976 0.028691193 0.80875003
0.14587431 0.028272508 0.80673349
0.15499903 0.026737496 0.80481488
0.16447248 0.026463149 0.80469239
0.17509961 0.02562857 0.80345839
0.18517911 0.025826912 0.80390316
0.19178002 0.025881527 0.80420011
0.049279999 0.03772857 0.80850005
0.055016749 0.035454147 0.80482966
0.06095238 0.038857143 0.80000001
0.12535909 0.03291909 0.80119061
0.13511035 0.032879289 0.80503714
0.14370817 0.031776603 0.802643
0.15466666 0.03047619 0.80000001
0.16152382 0.03047619 0.80000007
0.18773334 0.031085715 0.80000001
0.19351429 0.036396191 0.80085725
-0.012560952 0.048695236 0.80733335
-0.0053685717 0.048298098 0.80500019
0.0050390926 0.047476284 0.80533355
0.015148431 0.046634581 0.80429643
0.025469396 0.046668492 0.80513054
0.035129752 0.046081901 0.8049705
0.044901513 0.044698007 0.80483866
0.055025868 0.043931983 0.80251604
0.06095238 0.041904762 0.80000001
-0.062504523 0.058656428 0.80775011
-0.054760557 0.057960562 0.8070001
-0.044720329 0.056780625 0.8057586
-0.035135336 0.055795904 0.80453646
-0.025645576 0.053326786 0.80425936
-0.015563663 0.052498903 0.80161536
-0.0062438096 0.051197585 0.80127287
0.0051490478 0.050523333 0.80075008
0.011816191 0.050698094 0.80049998
-0.073018044 0.066765822 0.80852944
-0.065344013 0.064974137 0.80615795
-0.055106487 0.06505277 0.80361903
-0.045040052 0.064882971 0.80152762
-0.03716667 0.064229056 0.80049992
-0.072936974 0.074406669 0.80845463
-0.065076038 0.074729733 0.80584216
-0.055100098 0.074998617 0.80353087
-0.045037102 0.074804895 0.80145228
-0.038798541 0.074432231 0.80000013
-0.071500197 0.081362292 0.80900002
-0.065369524 0.081656061 0.8088572
-0.054639764 0.083593264 0.80708331
-0.04493583 0.084368281 0.80579317
-0.035402052 0.085025311 0.8028
-0.025706856 0.086955264 0.8009001
-0.01904762 0.089904763 0.80000001
-0.073760264 0.094922677 0.80900007
-0.041459844 0.096139848 0.80866671
-0.03479052 0.095359527 0.80599988
-0.025370194 0.094979435 0.80232495
-0.016064426 0.095791936 0.80088228
-0.044661716 0.10302573 0.80849999
-0.035152435 0.10423116 0.80541182
-0.025477238 0.10451391 0.80193543
-0.017013535 0.10537444 0.80052644
-0.020032382 0.11094857 0.80900002
-0.014610476 0.11072 0.80733341
-0.0050379219 0.1115742 0.80845451
0.0051633609 0.1134214 0.80852944
0.015291005 0.11538511 0.80607414
0.025197212 0.11625544 0.8034001
0.034658123 0.11645211 0.80238712
0.044561524 0.11781564 0.80120009
0.051047616 0.11885715 0.80000001
0.192 0.11733334 0.80000001
0.025933042 0.12233041 0.80823082
0.03572689 0.12413622 0.80648386
0.044933435 0.12509322 0.80473697
0.054661784 0.12507206 0.8025946
0.064357646 0.12710275 0.80111772
0.07521715 0.12907621 0.80100006
0.082285717 0.12952381 0.80000007
0.046485402 0.13200825 0.80900002
0.055500343 0.13279362 0.8076399
0.064937085 0.13466543 0.8067714
0.075041167 0.13488141 0.80541664
0.085034244 0.13535616 0.80254281
0.092642501 0.13726419 0.80138475
0.077818096 0.14022668 0.80900002
0.084790155 0.1425458 0.8085556
0.095335685 0.1418445 0.80276483
0.10292 0.14218476 0.80049998
0.11570413 0.14390731 0.80277783
0.1206819 0.14512381 0.80200005
0.13706477 0.14701715 0.80400002
0.14176762 0.14793143 0.80900002
0.15678857 0.1487186 0.8070001
0.165658 0.14781356 0.80277789
0.17533459 0.14717402 0.80779999
0.18260285 0.14947239 0.80900002
0.12569769 0.15827784 0.80900007
0.13625938 0.1590997 0.8083334
0.14537525 0.15791953 0.80625004
0.15503433 0.15496099 0.80588871
0.16495925 0.15486547 0.80454206
0.17485972 0.15453105 0.80384099
0.1835985 0.15540248 0.80569994
0.12589009 0.16371238 0.80887091
0.13522227 0.16481765 0.80772316
0.14526351 0.16468421 0.80474371
0.15494616 0.16494034 0.80265135
0.16487569 0.16487932 0.80148965
0.17477879 0.16530898 0.80014282
0.18430275 0.16500257 0.80329031
0.13758503 0.17236654 0.80900007
0.14533676 0.17399214 0.80794102
0.15483294 0.17473449 0.80678374
0.16516905 0.17503147 0.80387175
0.17491966 0.17512169 0.80266666
0.18504317 0.17490013 0.80640006
0.19107811 0.17412762 0.80900002
0.14870191 0.18106191 0.80900002
0.15563619 0.18080509 0.80900002
0.16609846 0.1832922 0.80900002
0.17502913 0.18514776 0.80808562
0.18246688 0.18427978 0.80900002
0.17489809 0.1910781 0.80900002
0.12976 0.017764762 0.81100005
0.13130477 0.017764762 0.81100005
0.14976001 0.018720001 0.81900007
0.15561658 0.018068573 0.81780005
0.16478257 0.017975384 0.81792319
0.17521669 0.017309692 0.81747085
0.18416168 0.017324287 0.81762516
0.19266 0.018720001 0.81900007
0.049194604 0.026787937 0.81133336
0.051904004 0.024716193 0.81100005
0.12976 0.020081906 0.81100005
0.13532931 0.024855388 0.81364018
0.14498253 0.023838669 0.81466675
0.1549077 0.021794572 0.81450015
0.1653982 0.021522325 0.81366676
0.17440644 0.021387501 0.8129999
0.18498933 0.020884251 0.8145386
0.19304572 0.021015558 0.8173334
0.029640002 0.039000005 0.81900007
0.035672572 0.038318858 0.81780016
0.0457066 0.035650659 0.81507415
-0.052260004 0.049920004 0.81900007
-0.044283468 0.049231514 0.81700015
-0.034987941 0.048977777 0.81633341
-0.024466351 0.047765248 0.81558341
-0.015467665 0.04632454 0.81595248
-0.0048800008 0.046349119 0.81500012
0.0045828572 0.043769725 0.81615806
0.015203945 0.042391844 0.81571442
0.024807982 0.041866943 0.81414294
0.034819368 0.041010793 0.8125
0.042699289 0.040767863 0.81149995
-0.10452002 0.059280004 0.81900007
-0.094518326 0.058073815 0.81850016
-0.084554993 0.056364447 0.81700009
-0.074821986 0.055288725 0.81545711
-0.065379098 0.054651216 0.81441182
-0.055400576 0.053067621 0.81470007
-0.046014484 0.052202668 0.8124668
-0.035548575 0.05100229 0.81140006
-0.11454857 0.064851448 0.81900018
-0.1052233 0.064690389 0.81838894
-0.095159017 0.064925879 0.81523246
-0.084869176 0.065120526 0.81197882
-0.076064087 0.063458815 0.81100011
-0.069514289 0.060245715 0.81100005
-0.11434801 0.072072022 0.81900018
-0.10503394 0.073563553 0.81843764
-0.095608339 0.075388364 0.81647366
-0.084987953 0.07495033 0.81231725
-0.077679455 0.075362317 0.81099999
-0.093323931 0.082781509 0.81817675
-0.084254079 0.084157467 0.81570971
-0.075328477 0.0853763 0.81166685
-0.065039687 0.086919576 0.81112927
-0.05514726 0.08866258 0.81115389
-0.047004897 0.089154847 0.81100005
-0.081606999 0.092263184 0.81866682
-0.075974643 0.094903745 0.81318182
-0.065026753 0.09522111 0.81285703
-0.054967199 0.095223613 0.8128888
-0.046071026 0.094731174 0.81145173
-0.074564025 0.10399342 0.81614298
-0.064812325 0.10369091 0.81437498
-0.054704249 0.10406175 0.81209111
-0.046779558 0.10658185 0.81326669
-0.03112381 0.11126763 0.81700003
-0.024632448 0.1145711 0.81700009
-0.014480001 0.11600386 0.81440735
-0.0055716573 0.11667315 0.81235993
0.0039061657 0.11762156 0.81194729
0.011585714 0.11894667 0.81100005
-0.021840002 0.12012 0.81900012
-0.01443 0.12129001 0.81900012
-0.0052457144 0.12315218 0.81731594
0.0048593818 0.12503777 0.8167001
0.014731851 0.1248543 0.81422228
0.023730159 0.12627511 0.81258339
0.033543404 0.12865661 0.81100005
0.0070200004 0.13104001 0.81900007
0.015689645 0.13254003 0.81862515
0.025108624 0.13451038 0.81755
0.034739166 0.13480239 0.81518763
0.043951392 0.13576275 0.81273925
0.05470008 0.1379452 0.81161541
0.061018098 0.13902858 0.81100005
0.028860003 0.14040001 0.81900007
0.035100006 0.14040001 0.81900012
0.046029612 0.14078027 0.81790918
0.055380527 0.14147809 0.8152222
0.064392544 0.14156717 0.81299996
0.075219855 0.14303689 0.81205255
0.083394147 0.14644469 0.81192315
0.095738426 0.14670382 0.81500006
0.10556001 0.14924002 0.81900012
0.11462141 0.14845246 0.81576937
0.12582777 0.14905199 0.8127144
0.13543779 0.14937431 0.81266677
0.14541551 0.14828546 0.81214297
0.18530539 0.14686963 0.81475997
0.19152275 0.1472041 0.8184287
0.086083643 0.15812729 0.81900018
0.096059509 0.15639132 0.81796569
0.10511362 0.15564263 0.81658155
0.11508305 0.15528736 0.81579155
0.1248209 0.15444411 0.8130002
0.13490051 0.1544684 0.8122974
0.14510816 0.15308738 0.81183881
0.15135714 0.15058097 0.81500006
0.18755621 0.15154558 0.8118571
0.19088984 0.15291049 0.8136667
0.086391568 0.16376539 0.81882626
0.094801001 0.16425446 0.81690234
0.10529317 0.164822 0.81500006
0.11492085 0.16522332 0.81370002
0.12349778 0.16675901 0.81113338
0.095160007 0.17056 0.81900012
0.10515672 0.17134356 0.81845468
0.11557558 0.17363679 0.81784624
0.12456417 0.17551109 0.81661111
0.13414295 0.17569908 0.81293344
0.14231119 0.17822693 0.81099999
0.19133678 0.17866288 0.81140006
0.12682751 0.18305282 0.81866682
0.13520905 0.18472388 0.81735009
0.14446151 0.1854094 0.81316233
0.15489371 0.18634297 0.81320012
0.16364473 0.18633856 0.81131572
0.18640128 0.18562889 0.81099993
0.19181998 0.18443377 0.81177771
0.13767001 0.19149002 0.81900007
0.14602117 0.19453081 0.81771451
0.1555239 0.19513063 0.81735903
0.16514899 0.19444817 0.81348795
0.17504334 0.19535421 0.81170297
0.18485309 0.19490701 0.81210542
0.19177811 0.19391407 0.81525004
0.14745718 0.20584573 0.81900018
0.15649641 0.20563638 0.81900018
0.16486211 0.20426753 0.81808573
0.17457959 0.20497872 0.81705904
0.18460566 0.20427574 0.81664306
0.19086573 0.20411238 0.81800008
0.13884 0.21606001 0.81900007
0.14508002 0.21335998 0.81900018
0.15468633 0.21265268 0.81900018
0.15711525 0.0094742868 0.82900006
0.17843239 0.0094742868 0.82900006
0.18395905 0.0094742868 0.82900012
0.13659962 0.018253716 0.82620013
0.14625679 0.017307676 0.82617646
0.15470465 0.013820444 0.82486671
0.1648002 0.013820382 0.82480001
0.17497256 0.013131082 0.82454544
0.18494366 0.012788272 0.82321048
0.19438729 0.013970681 0.82514292
0.046920002 0.028967623 0.82660007
0.13769111 0.020900954 0.82300007
0.14282516 0.020672763 0.8222
-0.030001907 0.039476193 0.82900006
-0.024475239 0.039476193 0.82900012
-0.014204286 0.03905762 0.82850003
-0.0051226192 0.038018338 0.82737511
0.0050663361 0.037521165 0.82682621
0.014935717 0.036946028 0.82549989
0.025147436 0.03645701 0.82513344
0.034761813 0.034759454 0.82423812
0.042839125 0.032819636 0.82361537
-0.10105906 0.048950478 0.82900006
-0.094202481 0.048283432 0.82840008
-0.08475025 0.047386434 0.82587504
-0.075106673 0.048013922 0.82546157
-0.065039903 0.047140356 0.82647365
-0.054749437 0.047206007 0.82480001
-0.044831436 0.046401907 0.82587504
-0.035044845 0.044732936 0.82533348
-0.025486173 0.042868957 0.82388008
-0.014741464 0.042030729 0.82340002
-0.0056602075 0.043018389 0.82326084
0.0038277255 0.041061591 0.82211113
0.013292381 0.040659048 0.82100004
-0.13270096 0.058311243 0.82740003
-0.12467773 0.05704543 0.8249231
-0.11484069 0.055734437 0.82372212
-0.1048968 0.054443259 0.82357889
-0.095056273 0.053090136 0.82242858
-0.085739434 0.051317342 0.82140011
-0.07603734 0.050535437 0.82140011
-0.064898103 0.05004191 0.82100004
-0.057079051 0.050041907 0.82100004
-0.13403319 0.064929575 0.82751614
-0.12452922 0.065003499 0.82233316
-0.11884953 0.060988571 0.82100004
-0.13303012 0.074439645 0.82814288
-0.12448239 0.075015403 0.82304996
-0.11523699 0.077630654 0.82109088
-0.10618267 0.079128772 0.82100004
-0.13106096 0.081320956 0.82900006
-0.12428775 0.084652781 0.82453346
-0.11490091 0.08570005 0.82376921
-0.10467126 0.085259765 0.82299984
-0.095499754 0.087184668 0.82121056
-0.087886095 0.088511616 0.82100004
-0.12285552 0.094115525 0.8284288
-0.11492218 0.095245264 0.82734138
-0.10459641 0.095152281 0.82572228
-0.094746344 0.094742961 0.8221665
-0.085912511 0.095035121 0.82106644
-0.12127086 0.10421715 0.82900012
-0.11507452 0.10434086 0.82759458
-0.10451683 0.10294192 0.82508337
-0.094453745 0.1031898 0.82257146
-0.084962003 0.10431842 0.8234998
-0.075082734 0.10913388 0.8235715
-0.066149041 0.10920905 0.82200003
-0.059569523 0.10973334 0.82300001
-0.080531433 0.11053333 0.82900006
-0.073808499 0.11295474 0.8271538
-0.064920537 0.11295956 0.82747614
-0.054411665 0.1135516 0.82700008
-0.04461877 0.11531567 0.82529408
-0.035541292 0.1155343 0.82388246
-0.027900001 0.11837652 0.82133341
-0.044634979 0.12184712 0.82881832
-0.034782026 0.12396879 0.82839149
-0.025380319 0.12520458 0.82479489
-0.015303011 0.12600189 0.82315993
-0.0058349795 0.12763515 0.82172734
0.00078190479 0.12979619 0.82100004
-0.030001907 0.13106096 0.82900006
-0.024101822 0.13169247 0.82845473
-0.014530206 0.1320076 0.82785714
-0.0052030594 0.13431834 0.82663667
0.0047036191 0.13582735 0.82368571
0.01417038 0.13733181 0.82209998
0.021111429 0.13917905 0.82100004
-0.0023685717 0.14053525 0.82900006
0.0046260324 0.14214274 0.82793349
0.014901474 0.14258268 0.82754564
0.024431905 0.14205891 0.82333344
0.034499049 0.14265335 0.82300007
0.044753335 0.14367144 0.82433337
0.053693809 0.1446138 0.82300007
0.061281905 0.14693239 0.82500005
0.074677147 0.14857237 0.82539999
0.094687305 0.14868253 0.82166672
0.10477525 0.14856192 0.82100004
0.046920277 0.15880708 0.82900012
0.055504825 0.15667494 0.82768965
0.065282904 0.15461686 0.82709759
0.075351536 0.15504391 0.8242175
0.085029483 0.15396687 0.82260001
0.094007902 0.15240316 0.82190007
0.047032006 0.16240589 0.82860005
0.055512592 0.16413325 0.82744437
0.065135539 0.16450576 0.82591897
0.075011969 0.16512223 0.82400036
0.082631707 0.16672207 0.82185721
0.065798819 0.17231458 0.828143
0.075264946 0.17411369 0.82790917
0.085070327 0.17506397 0.82520008
0.09507107 0.17580831 0.82382762
0.10469561 0.17649001 0.82276911
0.11406547 0.17804618 0.82175004
0.085636191 0.18133833 0.82875001
0.095694713 0.18432525 0.82782763
0.1048395 0.18457341 0.82542115
0.11477003 0.18480384 0.82453871
0.12387627 0.18656468 0.82181823
0.099480011 0.1918543 0.82900006
0.10475821 0.19455671 0.82705557
0.11488657 0.19436476 0.82623821
0.12497117 0.19492877 0.82529408
0.13431372 0.19558746 0.82305408
0.1433339 0.19768992 0.82240003
0.10804556 0.20346566 0.82863653
0.11472736 0.20411023 0.82865739
0.1245087 0.20504448 0.82722211
0.13511023 0.20502229 0.82480979
0.14309227 0.20438685 0.82239127
0.15339772 0.20443201 0.82125002
0.16498192 0.20955049 0.82100004
0.17280096 0.20955049 0.82100004
0.18739653 0.20902923 0.82100004
0.19078477 0.20876858 0.82100004
0.10816477 0.21080287 0.82900006
0.11539195 0.2113495 0.82900023
0.12422263 0.2124339 0.82516015
0.13487105 0.21349087 0.82283777
0.14369605 0.21386805 0.82128578
0.1556866 0.21700539 0.82170594
0.1647124 0.21445931 0.82427281
0.17544454 0.21480364 0.82520688
0.18497191 0.21531014 0.82506669
0.1925534 0.21587442 0.82582349
0.14886001 0.22053334 0.82700002
0.15182571 0.22026667 0.82600003
0.16067429 0.22053334 0.82700002
0.18711716 0.22106667 0.82900006
0.19296667 0.22053334 0.82700002
0.14755696 0.0092415242 0.83660012
0.15513714 0.0077703712 0.83488888
0.16489731 0.0071487296 0.83441657
0.17501827 0.0063592 0.83532256
0.18527377 0.005082286 0.83493328
0.19459118 0.0061977757 0.83533335
0.20154706 0.0076403804 0.83579999
0.13798593 0.014939429 0.83460009
0.14433751 0.013558175 0.83350009
0.15037143 0.011080001 0.83100003
0.16699144 0.011080001 0.83100003
0.17174 0.011080001 0.83100003
0.0079828575 0.028742857 0.83833337
0.015568096 0.028340477 0.8382501
0.024728574 0.028720003 0.83766675
0.035820231 0.026939593 0.83671433
0.045126405 0.024946462 0.83550012
0.05089524 0.022266667 0.83500004
-0.062325716 0.039952382 0.83900011
-0.054974478 0.039952382 0.83900005
-0.04499298 0.038407024 0.83799994
-0.034898359 0.037860177 0.83618182
-0.024308302 0.036113832 0.83480954
-0.015329661 0.034739185 0.83457148
-0.0056824493 0.033576515 0.83576196
0.0044630771 0.032416265 0.83500016
0.015080106 0.031747092 0.8334446
0.024125716 0.031423874 0.83326685
0.034864765 0.030901905 0.83200014
0.041945715 0.030074287 0.83100003
-0.14143142 0.049540952 0.83900005
-0.13423981 0.048842669 0.838
-0.1253508 0.04950159 0.83833337
-0.11408509 0.048101846 0.8380667
-0.10496348 0.046976198 0.83609098
-0.095086664 0.045666393 0.8350001
-0.085168101 0.044969048 0.83574998
-0.074306779 0.044351112 0.83500016
-0.064708278 0.043023758 0.8350001
-0.054841373 0.042916622 0.83455557
-0.045649759 0.042671911 0.83362508
-0.036980323 0.041467622 0.83200002
-0.14347628 0.055386662 0.83736372
-0.13555256 0.054035109 0.83442861
-0.12538406 0.052174523 0.83324999
-0.11576001 0.051069666 0.83414292
-0.10921714 0.050651431 0.83100003
-0.14385325 0.06516967 0.83449996
-0.13926119 0.065565959 0.83200002
-0.14359821 0.075209521 0.83499998
-0.13814136 0.075996071 0.83233345
-0.14130524 0.083626904 0.83825004
-0.1349895 0.08556284 0.83532256
-0.12821144 0.087848574 0.83100003
-0.13336822 0.093474798 0.83773685
-0.12656292 0.096228011 0.83300006
-0.1247835 0.10410985 0.83450007
-0.11238286 0.10921714 0.83100003
-0.10608001 0.10812056 0.83300006
-0.095354713 0.10892234 0.83277786
-0.12029715 0.11080001 0.83100003
-0.11493614 0.11213043 0.83546156
-0.1038863 0.11090992 0.83780003
-0.09410502 0.11406277 0.83673918
-0.085239254 0.11547808 0.83534294
-0.076400436 0.11715684 0.83366674
-0.064855836 0.11773322 0.83175009
-0.05578265 0.11807428 0.83144444
-0.08270143 0.12185477 0.83900005
-0.073847964 0.12330084 0.83747059
-0.064736493 0.12483139 0.83711427
-0.054900426 0.12491576 0.83538872
-0.04573923 0.12647936 0.83347631
-0.036778204 0.12792826 0.83144438
-0.070148572 0.13790572 0.83700001
-0.067455448 0.1379181 0.83655554
-0.05371983 0.13212088 0.8384546
-0.045498628 0.13489904 0.83811128
-0.035351094 0.13446644 0.83570582
-0.024607934 0.13706766 0.83350003
-0.01535645 0.1374054 0.83263654
-0.0089695249 0.13876382 0.83100003
-0.065365717 0.14029714 0.83700001
-0.047143813 0.14063238 0.83900005
-0.030291429 0.14029714 0.83700001
-0.02519962 0.14164039 0.83739996
-0.015136192 0.14177841 0.83633327
-0.0055593657 0.14268032 0.8338334
0.00079523813 0.14508 0.83700001
0.015311238 0.14642781 0.83740008
0.027144764 0.14770636 0.83833337
0.035233542 0.14779276 0.83586949
0.044808004 0.14809145 0.83420008
0.054898098 0.14783619 0.83200014
0.067129903 0.14787392 0.83119994
0.071228571 0.14641429 0.83100003
0.0095885722 0.15821144 0.83900011
0.015028854 0.15686782 0.8387779
0.024871064 0.1548672 0.83623087
0.035002537 0.15512089 0.83528584
0.044957597 0.15457518 0.83335292
0.054055579 0.15210398 0.83182371
0.062522858 0.15037143 0.83100003
0.0095885722 0.16140763 0.83900005
0.01458262 0.1620069 0.83900011
0.025038557 0.16457774 0.83590901
0.034946941 0.16441891 0.83399993
0.044237748 0.16564441 0.83218193
0.051967241 0.16889563 0.8318001
0.026673472 0.17144765 0.83785713
0.035939928 0.17301488 0.83715385
0.045416526 0.17450449 0.83664691
0.055005662 0.17513475 0.83378786
0.063859791 0.17716835 0.83223814
0.074196428 0.17826927 0.83099997
0.048262477 0.18122402 0.83900005
0.055053443 0.18271652 0.83777773
0.065417826 0.18478976 0.83652949
0.075113572 0.18512206 0.83347374
0.084424607 0.18610561 0.83252007
0.093036823 0.18818411 0.83099997
0.066409744 0.19159387 0.83900011
0.075329058 0.19498646 0.83726335
0.085077584 0.19480826 0.83488858
0.094787002 0.19498247 0.83278382
0.079904765 0.20136 0.83900005
0.086251952 0.20179361 0.83718193
0.095549382 0.20435685 0.83570254
0.10361689 0.20593938 0.83235717
0.11238286 0.20814571 0.83100003
0.097136036 0.21301192 0.83716673
0.10452171 0.21477297 0.83440012
0.11352795 0.21451828 0.83166671
0.13137715 0.21843429 0.83100003
0.16936572 0.21843429 0.83100003
0.17174 0.21843429 0.83100003
0.14862287 0.2245324 0.83900005
0.15238532 0.22517228 0.83585721
0.16696319 0.22302464 0.83483338
0.17503263 0.22487092 0.83517647
0.18476748 0.2256846 0.83359993
0.19239198 0.22549921 0.83328587
0.17642972 0.23108459 0.83900005
0.18378095 0.23172382 0.83900005
0.15848 -0.0016171429 0.84900004
0.16489144 -0.0016165988 0.84871429
0.17573315 -0.0022605718 0.84720004
0.18490921 -0.0024234923 0.8478334
0.19336715 -0.0020157145 0.84600002
0.20182669 -0.0016146032 0.84766674
0.13916191 0.0090990495 0.84300011
0.14464983 0.0061732577 0.84491986
0.15494478 0.0030353845 0.84669256
0.16479564 0.0016038095 0.84410012
0.17483467 0.00096266682 0.84313351
0.18449095 0.00040047619 0.84224999
0.19608329 0.0010200866 0.84190917
0.20176898 0.002062313 0.84357148
0.037598573 0.01900143 0.84900004
0.042649526 0.018508572 0.84500009
0.13856477 0.011213333 0.84100002
0.14096762 0.011213333 0.84100002
-0.024201905 0.028635718 0.847
-0.01482245 0.027805718 0.84457165
-0.0052886172 0.026895331 0.84490496
0.0048238426 0.025719019 0.84410334
0.015324234 0.024020815 0.84514838
0.024955496 0.02414286 0.84526676
0.034013242 0.022757994 0.84405267
0.04198895 0.021155048 0.84140009
-0.14036 0.0363 0.84700006
-0.13874666 0.0363 0.84700006
-0.11562572 0.03881143 0.8490001
-0.10493985 0.038122382 0.84866667
-0.094602853 0.03881143 0.8490001
-0.084443815 0.038035154 0.84809101
-0.07504826 0.03792794 0.84733343
-0.064664885 0.03722202 0.84737504
-0.055346064 0.036139663 0.84564
-0.045289777 0.035007872 0.84313351
-0.034585502 0.033242334 0.84455568
-0.025368255 0.031787302 0.84286684
-0.015218094 0.030436192 0.84100002
-0.0064076195 0.030436192 0.84100002
-0.14291508 0.046151262 0.84417659
-0.13504185 0.04467069 0.84551853
-0.12469502 0.044857036 0.84487903
-0.11534724 0.043108571 0.8441112
-0.10499686 0.041914761 0.84480011
-0.094889134 0.041812737 0.8443684
-0.08469224 0.041877799 0.84394759
-0.075764447 0.041227296 0.84333342
-0.067280002 0.040047623 0.84100002
-0.05606667 0.040047619 0.84100002
-0.1464842 0.052246477 0.84140009
-0.14432295 0.086740226 0.84330767
-0.14370847 0.094190903 0.84611118
-0.13685253 0.096737422 0.84242862
-0.14150001 0.10107143 0.84900004
-0.13379866 0.10421858 0.84630013
-0.12813143 0.10664691 0.84350002
-0.12440321 0.11451465 0.84750003
-0.11451369 0.11696232 0.84236848
-0.10538382 0.11600376 0.84269243
-0.097816877 0.11774586 0.84185719
-0.11412663 0.12435845 0.84514302
-0.10531538 0.12457816 0.84654278
-0.094874866 0.12403707 0.84566677
-0.085176684 0.12596725 0.84435993
-0.075386785 0.12699293 0.84205884
-0.064877138 0.12975429 0.84100002
-0.11402176 0.13389628 0.84538466
-0.10906881 0.1336631 0.84675002
-0.083320163 0.13218127 0.84800005
-0.074918956 0.13439134 0.84548301
-0.064488962 0.13463262 0.84255558
-0.055717051 0.13644147 0.84227276
-0.036042858 0.13936572 0.84100002
-0.062113337 0.14036 0.84700006
-0.055687081 0.14104299 0.84557146
-0.043931048 0.14110173 0.84180003
-0.034420513 0.14287853 0.84500015
-0.024363598 0.14512721 0.84655559
-0.015341482 0.14693083 0.84766674
-0.0063057141 0.14806019 0.84860003
0.0048179603 0.14862953 0.84357154
0.015218095 0.14857668 0.84100002
0.022426669 0.14817619 0.84100002
-0.022982433 0.15628941 0.84833336
-0.015324674 0.15483959 0.84680939
-0.0056387763 0.1545772 0.84538114
0.0045688576 0.15458664 0.84189987
0.01548508 0.15196736 0.8409999
0.022426669 0.15057907 0.84100002
-0.023322178 0.16290303 0.84857154
-0.014971101 0.16456087 0.84727603
-0.0056442339 0.1652644 0.84644443
0.0045711431 0.16473076 0.84289992
0.015442424 0.16601551 0.84136361
0.020824764 0.1682 0.84100002
-0.0040428573 0.17141715 0.84900004
0.0057180384 0.17441458 0.84736395
0.015283178 0.17455807 0.84461117
0.024310563 0.17592081 0.8436088
0.03344648 0.17803176 0.84153336
0.040848572 0.17941333 0.84100002
0.0097028576 0.18192858 0.84900004
0.016254133 0.18314025 0.84889483
0.025020212 0.18485045 0.8475557
0.034643646 0.18539719 0.84322858
0.044408709 0.18560773 0.84159452
0.054801654 0.18780319 0.84126669
0.06087238 0.18902476 0.84100002
0.027671112 0.19243999 0.84900004
0.034949068 0.19460182 0.84692615
0.045186408 0.19483954 0.84477794
0.05538382 0.19505844 0.8428334
0.06414894 0.19571501 0.84115368
0.070483811 0.19863619 0.84100002
0.045858335 0.20101404 0.84850001
0.056452002 0.20371869 0.84680027
0.065272994 0.20444514 0.84448385
0.074495591 0.20523238 0.8435455
0.084488951 0.20683363 0.84317392
0.091842547 0.20931557 0.84100002
0.066302858 0.21055201 0.8490001
0.076467752 0.21230775 0.8490001
0.085780717 0.2128475 0.84775007
0.093425505 0.21565059 0.84488899
0.11641429 0.21998286 0.84300005
0.13006286 0.21998286 0.84300005
0.10637882 0.22488938 0.84621745
0.11394903 0.22438332 0.84676474
0.12586902 0.2242744 0.84823817
0.13416784 0.22608852 0.84540009
0.14523354 0.2274539 0.84630007
0.15538476 0.22805299 0.84099996
0.16416726 0.22797307 0.84137493
0.108325 0.23259072 0.8472501
0.1118619 0.23096667 0.84500003
0.13664857 0.23125143 0.84900004
0.14593557 0.23196684 0.8481667
0.15480082 0.23499326 0.84500021
0.16514404 0.23487413 0.84493554
0.17462252 0.23539774 0.84366667
0.18500587 0.23639216 0.84195989
0.19258587 0.23413607 0.84357148
0.15767144 0.24095429 0.84900004
0.165272 0.24095431 0.8490001
0.17634322 0.24415311 0.84887505
0.18505101 0.24592641 0.84876949
0.19308686 0.24790803 0.8490001
0.16671178 0.25562999 0.84876019
0.17522411 0.25490296 0.84739041
0.18507417 0.25472802 0.845851
0.1950843 0.25473124 0.84643614
0.20058987 0.25570828 0.84700006
0.16702777 0.26186168 0.8490001
0.17542493 0.26408195 0.84883356
0.18507719 0.26443902 0.84700012
0.19484763 0.26460326 0.84686208
0.20045571 0.26378286 0.84700006
0.18672611 0.27200344 0.8490001
0.19359513 0.27156451 0.8490001
0.14776914 -0.001952762 0.8544001
0.15514261 -0.0041757342 0.85386956
0.16513216 -0.0055842651 0.85321742
0.17455208 -0.0063087302 0.85412502
0.18535793 -0.0072241831 0.85460865
0.19477043 -0.0063754874 0.85460871
0.20277886 -0.0048902859 0.85509998
0.1456871 0.00088554114 0.85245448
0.1512889 0.0005403175 0.85100001
0.0065346034 0.01906159 0.85777771
0.015464127 0.018722542 0.8548333
0.025548285 0.017569525 0.85430002
0.034769095 0.016344765 0.85445458
0.042039286 0.014823096 0.85299999
-0.060468573 0.029417142 0.85800004
-0.054708578 0.029394284 0.85733336
-0.04409058 0.028849522 0.8573333
-0.034356076 0.02782643 0.85624993
-0.025633333 0.025833696 0.85443741
-0.015195557 0.023787513 0.85488886
-0.00619327 0.022488637 0.85566664
0.0038960003 0.021613142 0.85319996
0.011346667 0.02107238 0.85100001
-0.14210349 0.03836254 0.85100001
-0.13476984 0.03655323 0.85372001
-0.12468954 0.036726475 0.85515004
-0.1149355 0.035223372 0.85481822
-0.10496565 0.034169707 0.85436362
-0.09512651 0.034956515 0.85370839
-0.085016385 0.034806985 0.85400003
-0.07486245 0.034001205 0.85442102
-0.065735243 0.032949578 0.85378951
-0.05483634 0.031726599 0.85253841
-0.044654764 0.031662863 0.85250008
-0.036591902 0.030897621 0.85375005
-0.142968 0.041172192 0.85100001
-0.13534954 0.040523812 0.85100001
-0.12724477 0.040523808 0.85100001
-0.14912762 0.088341907 0.85100001
-0.14912762 0.091583811 0.85100001
-0.14213525 0.10538667 0.8538
-0.13797696 0.1071343 0.85219997
-0.14103429 0.11168953 0.85600007
-0.13450705 0.11429114 0.85434616
-0.12692057 0.11719487 0.85099995
-0.13108318 0.12129398 0.85666674
-0.12483352 0.1248339 0.85512
-0.1189779 0.12643428 0.85100001
-0.10374095 0.12967621 0.85100001
-0.094825715 0.12967621 0.85100001
-0.12314032 0.13238731 0.85688889
-0.11995047 0.13372856 0.85100001
-0.10423756 0.13491057 0.85456008
-0.095183887 0.13504826 0.85420007
-0.085771151 0.13658313 0.85266668
-0.078886352 0.1388616 0.85100001
-0.085667938 0.14114603 0.85666668
-0.076807626 0.14222625 0.85388887
-0.061911117 0.14337017 0.85533345
-0.058354285 0.14264381 0.85100001
-0.040857144 0.14545144 0.85800004
-0.034999188 0.14768708 0.85742861
-0.025824245 0.1484336 0.85209084
-0.051970292 0.15607429 0.85799992
-0.044503182 0.15558609 0.85622883
-0.035015918 0.15470861 0.85500002
-0.026669806 0.15361181 0.85114998
-0.051207624 0.16070478 0.85800004
-0.04398476 0.16360933 0.85680002
-0.034815632 0.1650186 0.85476482
-0.026674664 0.16580181 0.85129994
-0.018640952 0.16857904 0.85100001
-0.032685716 0.17160001 0.85800004
-0.025281714 0.1745263 0.85630012
-0.015575293 0.17501308 0.85411429
-0.0056465683 0.17603473 0.85110337
0.0016209525 0.17848487 0.85099995
-0.013584563 0.18441266 0.85757887
-0.0059293495 0.18542086 0.85593957
0.0047224648 0.18532626 0.85214704
0.01439787 0.18783978 0.85099989
-0.0045396825 0.19193779 0.85799992
0.0056076185 0.1943524 0.85675001
0.015455493 0.19525707 0.85423362
0.024032744 0.19544058 0.852
0.032013807 0.1989719 0.85100001
0.0089885714 0.20101714 0.85800004
0.015924286 0.20233001 0.8574999
0.025620384 0.20269619 0.85680002
0.035266522 0.20474637 0.85459256
0.044266928 0.20615681 0.85495448
0.053349838 0.20744954 0.85308331
0.04641372 0.21114972 0.85799998
0.055011872 0.21251841 0.85723072
0.064962156 0.21511316 0.8555454
0.074363075 0.21658976 0.85494441
0.084482715 0.21744794 0.85300004
0.090773337 0.21882857 0.85100001
0.078445718 0.22062857 0.85800004
0.084923439 0.22129142 0.85739994
0.096587747 0.22479738 0.85674989
0.1024412 0.22708215 0.85537499
0.11781437 0.22722721 0.85154545
0.12272926 0.22716491 0.85100001
0.10465982 0.23247313 0.85589993
0.11685028 0.23337753 0.8556
0.12534669 0.23314956 0.85465211
0.13542086 0.23582458 0.85434783
0.14469668 0.23699182 0.85219055
0.15074857 0.23990095 0.85100001
0.19590096 0.23898 0.85350001
0.13809715 0.24187429 0.85800004
0.14585716 0.24374096 0.85737491
0.15468071 0.24584803 0.85513335
0.16525252 0.246318 0.85357153
0.17417982 0.2462898 0.85111988
0.1860043 0.24516907 0.85100001
0.1960796 0.24459691 0.85337049
0.20271839 0.24613367 0.85483336
0.12910858 0.25576574 0.85800004
0.13546413 0.25640133 0.85799986
0.14485492 0.25438803 0.85510415
0.15479226 0.2544657 0.85271746
0.16282214 0.25319055 0.85157132
0.2009981 0.25124761 0.85100001
0.13740571 0.26425141 0.85799992
0.14457682 0.26395372 0.85556257
0.1549737 0.26555467 0.85481822
0.16410105 0.26598209 0.85124993
0.17416234 0.26871789 0.85099995
0.15495776 0.27502209 0.85794109
0.16481186 0.27517277 0.85696965
0.17538702 0.27458954 0.85329401
0.18455583 0.27641264 0.85171431
0.19538647 0.27689785 0.85188228
0.20104709 0.27573988 0.85514289
0.16996571 0.28109714 0.85800004
0.17760023 0.28371194 0.85787487
0.18549985 0.28481427 0.8571378
0.19499046 0.28546014 0.8560347
0.20148347 0.28556991 0.85719997
0.18957716 0.29172003 0.85800004
0.19507428 0.29164577 0.85799992
0.20156191 0.29144764 0.85800004
0.17741799 -0.012991111 0.86422223
0.18469059 -0.014350901 0.8651852
0.19438623 -0.014321683 0.86457694
0.20331931 -0.013216969 0.8671819
0.1769143 -0.0098285712 0.86000001
0.18100953 -0.0098285712 0.86000001
0.19861904 -0.0094190473 0.86000001
0.20571777 -0.0085220784 0.86336374
0.015724763 0.0095176194 0.86900002
0.025914581 0.0088914288 0.86707693
0.03399165 0.0082395617 0.86569244
-0.041380953 0.019862859 0.86900002
-0.034927621 0.019584492 0.86714292
-0.025321905 0.018236414 0.86594123
-0.015488449 0.017416809 0.86573935
-0.0055252379 0.01668762 0.86417854
0.0047239321 0.014853336 0.86380649
0.015615951 0.013968013 0.86304188
0.025019525 0.012919049 0.86137503
0.034586664 0.012129905 0.86060011
0.040952381 0.011466666 0.86000001
-0.12380572 0.029299049 0.86662495
-0.11404775 0.02819976 0.8646251
-0.10458405 0.027169365 0.8646667
-0.095618844 0.027700553 0.86631584
-0.084461465 0.027802307 0.86673689
-0.074962392 0.027178891 0.86495841
-0.065012164 0.026632825 0.86576921
-0.055166986 0.024692703 0.8645336
-0.045512658 0.024301797 0.86362982
-0.035863429 0.023386285 0.86170006
-0.025420001 0.022139048 0.861
-0.018440001 0.021717142 0.86049998
-0.13251834 0.032713808 0.86425006
-0.12568352 0.032429013 0.86123079
-0.11637238 0.031551428 0.86050004
-0.1064762 0.03112381 0.86000001
-0.094501428 0.031364765 0.86100006
-0.085215621 0.031851809 0.86200011
-0.075352386 0.031123811 0.86000007
-0.13770539 0.11803555 0.86066669
-0.13330832 0.12638246 0.86250007
-0.12859048 0.12859048 0.86000001
-0.12762341 0.1320713 0.8605715
-0.10109524 0.14136761 0.86300004
-0.09424936 0.14258301 0.86400008
-0.085350163 0.14650114 0.86633337
-0.074925177 0.14749771 0.86728585
-0.065113984 0.14807531 0.86478949
-0.054967828 0.14767726 0.86144453
-0.045320559 0.14762577 0.86058831
-0.037676193 0.14906667 0.86000001
-0.093024388 0.15592344 0.8690002
-0.0850861 0.1544711 0.86736107
-0.074786209 0.15457958 0.86404884
-0.064869419 0.15518816 0.8621667
-0.055962637 0.15421043 0.86023086
-0.046412703 0.15097778 0.86000007
-0.091747493 0.16268627 0.86900008
-0.084771998 0.16391686 0.86866665
-0.075262234 0.16495658 0.86683881
-0.064835392 0.16463029 0.8634516
-0.055262107 0.16513985 0.86096966
-0.047068402 0.16727033 0.86018181
-0.074572831 0.17319016 0.8690002
-0.064184651 0.17248103 0.86846679
-0.055317339 0.17502983 0.86686677
-0.04504434 0.1747141 0.86378133
-0.035735302 0.17544605 0.86082774
-0.053913474 0.18089388 0.86900008
-0.045218606 0.18434381 0.86849999
-0.035236433 0.18492714 0.86537504
-0.025424654 0.18452708 0.86111116
-0.018292062 0.18578731 0.86000001
-0.043036193 0.19035241 0.86900008
-0.0355836 0.1925348 0.86888909
-0.025341909 0.19447666 0.86628586
-0.015609973 0.19467044 0.8624413
-0.0062439903 0.19613513 0.86047608
0.0018201058 0.19857354 0.86000007
-0.022759523 0.20069763 0.86900002
-0.015163174 0.20247351 0.86833334
-0.0053276927 0.20398463 0.86550003
0.0049829888 0.20513955 0.86251718
0.015111294 0.20710991 0.86099994
0.025399048 0.20784569 0.86033332
0.032761909 0.20967619 0.86000001
0.0049657146 0.21021524 0.86900002
0.017189715 0.21257029 0.86780006
0.025764899 0.2138145 0.86600006
0.035642859 0.21551931 0.8646431
0.044877861 0.21579559 0.86244017
0.054591905 0.21704023 0.86037505
0.061919998 0.21884952 0.86000007
0.035753142 0.22113982 0.86900008
0.046172541 0.2225973 0.86833346
0.055438276 0.22364916 0.865762
0.065233581 0.22494851 0.86340743
0.074627392 0.22525008 0.8627243
0.084229723 0.22625709 0.86200017
0.092899635 0.22714669 0.86030775
0.062899046 0.23007809 0.86900008
0.076538235 0.23304148 0.86814296
0.085474044 0.23392417 0.86804336
0.094826326 0.23449638 0.86478585
0.10230285 0.23635343 0.86307693
0.11732952 0.23793811 0.86150002
0.12536128 0.23843494 0.86033338
0.13186666 0.23916191 0.86000001
0.20230001 0.23945715 0.86700004
0.086899996 0.24994096 0.86900002
0.09675619 0.2446743 0.86900014
0.10544959 0.24567498 0.86799991
0.11476804 0.24522763 0.86697227
0.12437513 0.24525636 0.86620611
0.13469113 0.24587283 0.86468762
0.14352083 0.24724135 0.86042863
0.19984761 0.24080001 0.86000001
0.20295191 0.24136238 0.86275005
0.088141441 0.25449285 0.86900014
0.09517619 0.25573426 0.86899984
0.10489154 0.25521135 0.86722243
0.11518455 0.25459874 0.86311114
0.12500136 0.25405779 0.86095029
0.13429354 0.25131425 0.86147368
0.096417606 0.26276904 0.86900014
0.10554361 0.26448247 0.86821425
0.11480229 0.26478243 0.86519462
0.12533519 0.26473153 0.86182368
0.13289486 0.26546517 0.86029989
0.10924571 0.27145904 0.86900002
0.11641891 0.27302504 0.86871445
0.12550569 0.27453339 0.86847836
0.13489369 0.27493903 0.86461788
0.14535481 0.27464873 0.8621518
0.15070477 0.27765715 0.86000001
0.1351359 0.28550962 0.86894101
0.14469586 0.28522074 0.86791658
0.15455876 0.28535968 0.86389673
0.16502881 0.28481725 0.86145467
0.1736743 0.28657869 0.86018181
0.18346667 0.28994286 0.86000007
0.20312381 0.28175238 0.86000001
0.14786795 0.29242539 0.86900008
0.15530081 0.29424852 0.86840749
0.16468631 0.29509035 0.86655557
0.17450057 0.29467738 0.86248165
0.18448405 0.29517987 0.86093348
0.19487727 0.29629427 0.8600952
0.20209448 0.29592609 0.86120003
0.15697175 0.30621901 0.86900026
0.1644755 0.30555698 0.86899996
0.17453279 0.30440161 0.86853325
0.18456508 0.30376208 0.86738116
0.19452149 0.30525622 0.86715388
0.20217589 0.30519569 0.86883342
0.15807524 0.31118476 0.86900002
0.16386858 0.31118476 0.86900008
0.18470858 -0.022488967 0.87641186
0.19427453 -0.02327933 0.87658834
0.20457622 -0.021432698 0.87675011
0.2115562 -0.020068571 0.87800002
0.18535788 -0.019016508 0.87233341
0.19587031 -0.019272381 0.87220013
0.20546682 -0.016618777 0.87242872
0.21188717 -0.015145715 0.87533331
0.21069905 -0.0099542858 0.87100005
-0.010034285 0.0083619049 0.87800002
-0.0044587301 0.0080784131 0.87750006
0.0049132882 0.0082435375 0.87428588
0.014646287 0.0059888568 0.87400007
0.025303878 0.0052130795 0.87400013
0.03160191 0.0044330163 0.87333339
-0.080274284 0.018396189 0.87800002
-0.073934697 0.018600816 0.87642866
-0.064588986 0.018671837 0.87428588
-0.054700233 0.01783311 0.87404782
-0.045110725 0.017373914 0.8743915
-0.035088349 0.015554105 0.87523818
-0.025509574 0.01349614 0.87447375
-0.015081008 0.011943866 0.87405896
-0.0060121608 0.011256265 0.87315398
0.00082952384 0.011613334 0.87100005
-0.14048 0.027594287 0.87800002
-0.13392089 0.027373629 0.87715399
-0.12528485 0.02558629 0.87525016
-0.11481471 0.023453515 0.87661916
-0.10463525 0.021651907 0.87456262
