# .PCD v0.7 - Point Cloud Data file format
VERSION 0.7
FIELDS x y z
SIZE 4 4 4
TYPE F F F
COUNT 1 1 1
WIDTH 294
HEIGHT 1
VIEWPOINT 0 0 0 1 0 0 0
POINTS 294
DATA ascii
-0.045730002 -0.050432861 0.54875004
-0.03347538 -0.050998107 0.54800004
-0.024910072 -0.051235244 0.54814285
-0.016405081 -0.051298734 0.54683328
-0.0083492072 -0.05010286 0.54800004
-0.071407355 -0.042127352 0.54900002
-0.064551033 -0.043316092 0.54641664
-0.054577719 -0.044242218 0.54451329
-0.04467836 -0.044477966 0.5418573
-0.035101589 -0.044742346 0.54130727
-0.025162801 -0.044793561 0.54276037
-0.015070133 -0.045218814 0.54574996
-0.0085262945 -0.045305923 0.54765218
-0.070585713 -0.039214291 0.54900002
-0.064176254 -0.035426162 0.54708862
-0.055066269 -0.034800813 0.54545587
-0.04498104 -0.034761768 0.54335684
-0.034909125 -0.034519933 0.54325235
-0.02517735 -0.03489751 0.5448525
-0.016205737 -0.035259567 0.5469743
-0.0094114281 -0.039737146 0.54900002
-0.062294699 -0.028981229 0.54900002
-0.054806773 -0.025316013 0.54715288
-0.045201682 -0.025023665 0.54499984
-0.034803987 -0.024932779 0.54543328
-0.024955774 -0.024956316 0.54592609
-0.016384959 -0.025019269 0.54797018
-0.052567154 -0.014922329 0.54769415
-0.044962693 -0.015218487 0.54624492
-0.034850869 -0.015083967 0.54619038
-0.024986675 -0.015094515 0.5466004
-0.01733641 -0.015358828 0.54787743
-0.051690217 -0.0085513415 0.54872733
-0.043814689 -0.0057054185 0.54834479
-0.035123311 -0.0052879252 0.54794264
-0.025042748 -0.0077113737 0.54847062
-0.01882286 -0.0094114281 0.54900002
-0.04224686 0.0027188573 0.54899985
-0.035221055 0.003167564 0.54883814
-0.028861716 0.0018822857 0.54900002
-0.043724675 -0.060942337 0.55863643
-0.037764288 -0.060637146 0.55850005
-0.072633341 -0.051690161 0.55666679
-0.064637631 -0.052233022 0.55552787
-0.054199234 -0.053446222 0.55351853
-0.044919498 -0.055564314 0.55455428
-0.035067916 -0.055905666 0.55449998
-0.025198415 -0.055625077 0.55381489
-0.01495993 -0.055339154 0.55496162
-0.0054416847 -0.054679748 0.55489838
0.0027055608 -0.052691437 0.5561291
-0.08247932 -0.043620437 0.55730301
-0.075455062 -0.04543807 0.55450708
-0.065678328 -0.048573714 0.55292004
-0.057397146 -0.048878569 0.55037504
-0.003847128 -0.044724863 0.55230653
0.0025285548 -0.045614958 0.55625457
-0.081809677 -0.037564497 0.55778575
-0.074721478 -0.035105519 0.55341983
-0.068321906 -0.032063335 0.55041671
-0.011481574 -0.033898309 0.550174
-0.0053327754 -0.035000004 0.55290622
0.0016398911 -0.034657359 0.5571714
-0.074103154 -0.02507586 0.55595666
-0.065499082 -0.024589796 0.55149996
-0.05901587 -0.022698412 0.55000001
-0.01152878 -0.025246374 0.55026096
-0.0052164374 -0.024821667 0.55338234
0.0021487663 -0.024967352 0.55753064
-0.07294175 -0.015564661 0.55752629
-0.065196618 -0.015115856 0.55349451
-0.057769813 -0.015148533 0.55057436
-0.012287531 -0.014924785 0.55155814
-0.005322834 -0.014842273 0.55414647
0.00097866671 -0.01517539 0.55799997
-0.071106814 -0.0055230479 0.55783999
-0.064540379 -0.0051865461 0.5545066
-0.055211287 -0.0048444443 0.55179179
-0.047833875 -0.0040085292 0.55008709
-0.030380955 -0.0031428575 0.55000007
-0.025183588 -0.0034344061 0.55042553
-0.015111987 -0.0051100822 0.55194265
-0.0052771997 -0.0052800719 0.55456823
0.00050061627 -0.005190365 0.55800003
-0.070626438 0.0017295239 0.55862504
-0.064589024 0.0047181584 0.55625838
-0.054784831 0.0047427504 0.55307823
-0.046158306 0.0054892898 0.55073839
-0.034682617 0.0079916669 0.55021876
-0.024809461 0.0049196542 0.55138642
-0.015131037 0.0047163502 0.55329949
-0.0052955765 0.0047754077 0.55658877
0.00056749204 0.0030488893 0.55820012
-0.044950891 0.014863814 0.55323029
-0.034880873 0.014611005 0.5519523
-0.024742713 0.014743218 0.55280054
-0.014781331 0.01478606 0.5543955
-0.0060150665 0.014417142 0.55723882
0 0.01118 0.55900002
-0.062774703 -0.061753757 0.56766671
-0.054927044 -0.062991589 0.56619066
-0.045029216 -0.06486477 0.56470448
-0.034823157 -0.065106481 0.56442058
-0.02497535 -0.064691477 0.56405807
-0.015341852 -0.062795334 0.5643335
-0.0084034931 -0.061486036 0.56300002
0.0027095238 -0.060693335 0.56900001
-0.083757818 -0.051716488 0.56625003
-0.075500846 -0.053621907 0.56416678
-0.064850941 -0.057475634 0.56414282
-0.055766504 -0.058145378 0.56104553
-0.025071049 -0.059744 0.56010002
-0.014176449 -0.059529696 0.5608182
-0.0096171433 -0.059840005 0.56100005
0.0064601302 -0.055479735 0.56352282
0.012851862 -0.053650826 0.56494284
-0.092313819 -0.044610176 0.56786209
-0.087107971 -0.045984417 0.56438476
0.007563204 -0.044312794 0.56307304
0.012406193 -0.045435712 0.5649721
-0.09104 -0.03386905 0.56900001
-0.08577878 -0.034153506 0.56449199
-0.079999998 -0.032533333 0.56
0.0069268197 -0.035409354 0.56273699
0.012658959 -0.035213336 0.56719053
-0.083746016 -0.025129614 0.56563944
-0.078803293 -0.023872038 0.56045455
0.007309854 -0.024974927 0.56267345
0.012286179 -0.024338359 0.56599998
-0.083516732 -0.0151037 0.56642318
-0.077333763 -0.014078369 0.56120002
0.006299457 -0.014881588 0.56232309
0.01234409 -0.015132382 0.56629419
-0.08263649 -0.0058440217 0.56647229
-0.076480962 -0.0052593886 0.56251782
0.0058291978 -0.005383092 0.56210965
0.012019927 -0.0062363381 0.56765383
-0.081565015 0.0039849626 0.56736839
-0.075499579 0.0050780033 0.5637036
-0.069333337 0.0095999995 0.56
0.0055913283 0.0051459735 0.56397635
0.011808095 0.004555102 0.56717867
-0.05184 -0.070634834 0.57557148
-0.044313658 -0.072213396 0.57570374
-0.035691909 -0.072596677 0.57525003
-0.02613524 -0.072376832 0.57566667
-0.016091429 -0.071114682 0.57660002
-0.0082271434 -0.070217147 0.57600003
-0.070880957 -0.061612383 0.57249999
-0.067419767 -0.06198024 0.57087505
-0.052271836 -0.068548039 0.57514286
-0.04520411 -0.068638541 0.57338464
-0.024314284 -0.069150478 0.574
-0.014883129 -0.06766361 0.57392865
-0.005360934 -0.064940311 0.57400012
0.001552109 -0.062531568 0.57092869
-0.075154416 -0.057274163 0.57258058
-0.0010876191 -0.059276193 0.57100004
0 -0.059171431 0.57000005
0.019851429 -0.05569429 0.57900006
0.020954289 -0.05569429 0.57900006
-0.13494964 -0.042911172 0.57900006
-0.094699822 -0.046531815 0.57080007
0.017208252 -0.044199869 0.57558978
-0.092076205 -0.032798618 0.57236373
0.017613517 -0.034794383 0.57516652
0.020954289 -0.033085715 0.57900006
-0.092169948 -0.025692856 0.57482147
-0.088790633 -0.024161467 0.57061547
0.017239524 -0.025429128 0.5730207
0.021238441 -0.026529005 0.5758183
-0.090535879 -0.014904763 0.57266665
-0.08851254 -0.016248573 0.5719167
0.017253414 -0.015214873 0.57138282
0.020994764 -0.014997302 0.57258338
-0.087063201 -0.004747909 0.57352173
0.016736656 -0.0050479304 0.57181811
0.021303814 -0.0046182321 0.57564288
-0.086068638 0.0055717528 0.5747233
0.016796712 0.0050545312 0.57288712
0.022088008 0.0040937276 0.57679313
-0.050228573 -0.11050286 0.58600003
-0.045680478 -0.11076286 0.58491671
-0.050950825 -0.10433179 0.58381826
-0.045080662 -0.10486126 0.58365202
-0.03935286 -0.10143477 0.58200008
-0.052804995 -0.094122618 0.58437496
-0.045395199 -0.095212229 0.58123487
-0.036991086 -0.094197989 0.58292001
-0.052794047 -0.087846547 0.58425009
-0.045001615 -0.08499112 0.58334452
-0.036144741 -0.085471623 0.58457977
-0.050924353 -0.075759731 0.58485717
-0.045211844 -0.076782361 0.58417064
-0.034743626 -0.07552395 0.58246666
-0.029007351 -0.073555104 0.58257151
-0.13218796 -0.060439374 0.58400011
-0.12848 -0.060068578 0.58400005
-0.14243431 -0.052605331 0.58080006
-0.13455461 -0.054430936 0.5818066
-0.12532343 -0.054717384 0.58226115
-0.11681007 -0.05255089 0.58346432
0.018429462 -0.052707557 0.58053333
0.021026667 -0.052013338 0.58100003
-0.15190262 -0.043209802 0.58271432
-0.14490099 -0.045191523 0.58145481
-0.13524385 -0.046548504 0.58043098
-0.1247612 -0.04754556 0.58171135
-0.11478801 -0.045250878 0.58377886
-0.10697598 -0.043073855 0.58572227
0.01805016 -0.04954445 0.5801667
0.021026667 -0.049246669 0.58100003
-0.15405782 -0.034524929 0.58394355
-0.14720215 -0.036371026 0.58335721
-0.11169613 -0.036658823 0.58641189
-0.10559487 -0.034645919 0.58808142
-0.098369718 -0.031484194 0.58820003
0.023046987 -0.033740956 0.58077782
-0.15473811 -0.024379145 0.58532435
-0.14839913 -0.023422223 0.58557141
-0.10492763 -0.02834286 0.58899999
-0.097307965 -0.024954971 0.58612001
0.023793334 -0.029880002 0.58100003
-0.15447207 -0.015234949 0.58785164
-0.14877366 -0.017171748 0.58800006
-0.097044766 -0.015145715 0.58900005
0.024259049 -0.01157524 0.58271432
0.024915634 -0.005869525 0.58193201
0.025479428 0.0051799379 0.58316672
-0.050657146 -0.081051432 0.59100002
-0.05057143 -0.07979048 0.59000003
0.055453803 -0.074330278 0.5968889
0.064821243 -0.075124077 0.59713751
0.072520807 -0.076266244 0.59761286
0.046044994 -0.064106256 0.59780014
0.054243613 -0.065225892 0.59704119
0.061878644 -0.06804952 0.59685725
0.046091221 -0.054446787 0.598037
0.051571093 -0.055460941 0.59844828
0.039933335 -0.043926671 0.59900004
0.044176284 -0.045426525 0.59768629
0.050772384 -0.049060956 0.59900004
-0.11069524 -0.030342858 0.59000003
-0.1006434 -0.035712171 0.59000009
-0.098052382 -0.033995241 0.59000003
0.039473992 -0.034211867 0.59869236
0.042473126 -0.03582415 0.59796762
-0.11091278 -0.024512479 0.59068418
-0.1046277 -0.023386808 0.5904237
-0.098458096 -0.023067143 0.59075004
0.028138231 -0.0209815 0.59771436
0.035908073 -0.024104347 0.59886956
0.041644767 -0.028523814 0.59900004
-0.15452382 -0.010114286 0.59000003
-0.14881752 -0.012476573 0.59010011
-0.11348728 -0.014140524 0.59361202
-0.10513751 -0.014851028 0.59227252
-0.098282255 -0.016652817 0.59000015
0.027936546 -0.015246249 0.59559381
0.034084577 -0.014867284 0.59738719
-0.15351516 -0.0052085305 0.59091306
-0.1478574 -0.004400345 0.59133333
-0.11287538 -0.0087450352 0.59514296
-0.10842984 -0.0086736511 0.59400004
0.029368002 -0.0077386671 0.59759998
0.032880574 -0.0070298971 0.59791303
0.049204286 -0.07266286 0.60075003
0.050285716 -0.073714286 0.60000002
0.066285722 -0.070857145 0.60000002
0.041371431 -0.062400002 0.60000002
0.056000005 -0.060571428 0.60000002
0.065714285 -0.068571433 0.60000002
0.03881143 -0.051461432 0.60375005
0.041578349 -0.054414336 0.60110527
0.055268768 -0.054503746 0.6007334
0.036919128 -0.04400428 0.60324341
0.04662 -0.043470006 0.60060006
0.052662667 -0.045018375 0.60104996
0.035423886 -0.034740716 0.60318005
0.047063854 -0.034707669 0.60107893
0.051974386 -0.034602251 0.60337049
0.028842349 -0.024964835 0.60200006
0.034754843 -0.025721207 0.60039228
0.045158148 -0.024795884 0.60200006
0.052009769 -0.026363101 0.60620838
0.038755815 -0.014403619 0.6002
0.044830233 -0.01493879 0.60334575
0.051818784 -0.014279365 0.60776192
0.029244902 -0.0026138774 0.60042858
0.035957258 -0.0040751216 0.600878
0.044937845 -0.0051808483 0.60480577
0.051714186 -0.0055931229 0.60783339
0.051619999 0 0.60900003
0.054819815 -0.015836954 0.61146671
