# .PCD v0.7 - Point Cloud Data file format
VERSION 0.7
FIELDS x y z
SIZE 4 4 4
TYPE F F F
COUNT 1 1 1
WIDTH 513
HEIGHT 1
VIEWPOINT 0 0 0 1 0 0 0
POINTS 513
DATA ascii
0.11302032 0.008786032 0.62900001
0.10902667 0.011381905 0.62900001
0.11355281 0.013045925 0.62899995
0.11595315 0.026769938 0.62899989
0.12100761 0.02516 0.62900001
0.097045705 0.081021197 0.62900001
0.10064001 0.081470475 0.62900001
0.10739666 -0.051495716 0.63800001
0.11570761 -0.053126205 0.63796902
0.12355725 -0.053930923 0.63776338
0.13003047 -0.05286286 0.63800001
0.099128716 -0.041665308 0.63800001
0.10575424 -0.044454161 0.63763648
0.11508837 -0.045373157 0.63729
0.12493477 -0.04529538 0.63654304
0.13285708 -0.044025246 0.63745165
0.097270057 -0.034459442 0.63771069
0.10502923 -0.034644686 0.63585293
0.11464472 -0.035185184 0.63571846
0.12496612 -0.034839787 0.63559246
0.13490179 -0.034412734 0.63662291
0.14225037 -0.033081487 0.63800019
0.096044026 -0.024699297 0.63692462
0.10466406 -0.024720604 0.63473833
0.11484164 -0.024783073 0.6346426
0.1250447 -0.024850579 0.63472313
0.13492651 -0.024806317 0.63528121
0.14308323 -0.024971524 0.63795012
0.15068953 -0.020659048 0.63800001
0.095574766 -0.014961173 0.63569236
0.1053544 -0.015239717 0.63404399
0.11495161 -0.015049912 0.63193762
0.12474295 -0.015070271 0.63275009
0.13463663 -0.015096582 0.63392186
0.14478041 -0.015020563 0.63727134
0.15068953 -0.01944381 0.63800001
0.089202546 -0.002426032 0.63716674
0.095150284 -0.0055780686 0.6342501
0.10519966 -0.005286668 0.63311756
0.11475139 -0.0054072901 0.63084394
0.12473227 -0.0053639743 0.6307106
0.13485582 -0.0054780967 0.63327128
0.14367214 -0.0055395151 0.63612241
0.089184977 0.0051985183 0.63800019
0.095146015 0.004837919 0.63490677
0.10488243 0.0048134313 0.6318205
0.11480004 0.0042285719 0.62999994
0.12480503 0.0048000007 0.63002485
0.13471301 0.0048095244 0.63144463
0.14440918 0.0051529473 0.6365782
0.088636428 0.015178176 0.63745844
0.095277026 0.015098691 0.63412851
0.10493397 0.015147711 0.63142204
0.11526604 0.016416427 0.63018918
0.1248 0.015000004 0.63000005
0.13480461 0.015044999 0.63187528
0.14421992 0.015312929 0.63585722
0.15068953 0.01944381 0.63800001
0.088833913 0.022117335 0.63800001
0.094970807 0.024802897 0.63517195
0.10466435 0.024662415 0.63162506
0.11434133 0.023638872 0.63030928
0.1251872 0.024394982 0.63075
0.13453597 0.024825433 0.63280654
0.14467427 0.024760906 0.63587296
0.15068953 0.020659048 0.63800001
0.095684722 0.034550514 0.63603455
0.10494569 0.034986675 0.63332081
0.11484377 0.035281476 0.63208967
0.12472541 0.034951638 0.6326527
0.13470614 0.034861729 0.63486922
0.14268824 0.033937037 0.63626468
0.096836112 0.042895909 0.63754857
0.10484242 0.045355283 0.6358307
0.1151029 0.045471456 0.63571811
0.12513919 0.045342397 0.63476557
0.13485019 0.045217309 0.63691527
0.14096762 0.040102858 0.63800001
0.10796155 0.053602025 0.63774997
0.11463416 0.054624118 0.63750893
0.12457818 0.053826075 0.63679147
0.13411722 0.052340139 0.63761914
0.10633334 0.082636192 0.63800001
0.13246095 0.083243817 0.63800001
0.09456858 -0.090241909 0.64900005
0.10724905 -0.090702862 0.64350003
0.11128001 -0.090491436 0.64200008
0.095875815 -0.08473938 0.64854825
0.10551119 -0.08482448 0.64707237
0.11462083 -0.084665388 0.64514536
0.12532818 -0.08501593 0.64539665
0.13497451 -0.084024243 0.6452142
0.14386602 -0.083874285 0.64782065
0.096595079 -0.074513495 0.64825022
0.10517625 -0.074832 0.64684987
0.11484752 -0.075206414 0.64441687
0.12463623 -0.075269163 0.64403075
0.1350643 -0.075163059 0.6466949
0.14409377 -0.073299535 0.64856422
0.15122733 -0.070874929 0.64900005
0.095229566 -0.064460993 0.64707446
0.10490312 -0.064758636 0.64308971
0.11507401 -0.065523371 0.64192843
0.12514403 -0.065280333 0.64204907
0.13498306 -0.064773783 0.6437251
0.14537764 -0.06488394 0.64755166
0.15133034 -0.064796984 0.64900017
0.087172382 -0.052922934 0.64846164
0.094841741 -0.054736935 0.64468575
0.10490943 -0.05579539 0.64108604
0.11437868 -0.057666723 0.64031243
0.12644377 -0.057474725 0.64042312
0.13563108 -0.054821379 0.64210701
0.14504904 -0.054703046 0.64532155
0.15249081 -0.053880904 0.64833337
0.085662112 -0.04463511 0.64720643
0.094891734 -0.044960011 0.64134836
0.1024 -0.047542866 0.64000005
0.13732761 -0.045689389 0.64085722
0.1450088 -0.044619881 0.64273024
0.1535223 -0.044894915 0.64699996
0.079116195 -0.033377144 0.64900011
0.084955595 -0.035006396 0.64594346
0.092395626 -0.03497855 0.64099997
0.13897143 -0.038400002 0.64000005
0.14610872 -0.035681438 0.6409499
0.15468489 -0.034940243 0.64695829
0.16070476 -0.030904762 0.64900005
0.078155927 -0.024774674 0.64788896
0.084961727 -0.025305331 0.64429432
0.091189377 -0.025495037 0.64057904
0.14656922 -0.024862902 0.63999981
0.15513387 -0.025328409 0.64391673
0.1613908 -0.025380105 0.64816672
0.07770519 -0.015112333 0.64730775
0.085035622 -0.015297026 0.64239067
0.090631694 -0.015420088 0.64063638
0.14896764 -0.017066669 0.64000005
0.15509312 -0.015063677 0.64265311
0.16107415 -0.015948573 0.64764291
0.076568954 -0.0053684819 0.64664155
0.084822364 -0.0056387722 0.64167726
0.090244763 -0.007927143 0.64025003
0.14937399 -0.0052012703 0.64000005
0.15509021 -0.0053158249 0.64226931
0.16107272 -0.0063712704 0.64716661
0.076249421 0.0049989005 0.64635926
0.084334172 0.0047904463 0.6414125
0.14959459 0.0026122453 0.6400001
0.15539426 0.0048397318 0.642672
0.16244355 0.0051803808 0.64730006
0.075963907 0.01516356 0.64625007
0.083734721 0.015282065 0.6417917
0.14924628 0.013931973 0.6400001
0.15501261 0.015057182 0.64269996
0.16109185 0.015951429 0.64771432
0.077189848 0.025047451 0.64671117
0.084571794 0.025374779 0.64175856
0.090209529 0.027428573 0.64000005
0.14994287 0.029257143 0.64000005
0.15521997 0.025236392 0.64389366
0.16152869 0.024634605 0.64844453
0.077929661 0.03407497 0.64796436
0.084828123 0.035068631 0.64329416
0.090872899 0.035065271 0.64066666
0.14792183 0.035799917 0.64204544
0.15482637 0.034819562 0.64617312
0.16070476 0.030904762 0.64900005
0.078673653 0.04551588 0.64875007
0.084785081 0.044858597 0.64516658
0.093905747 0.046249226 0.64084446
0.14486229 0.044827715 0.64155567
0.1534922 0.044421881 0.6458286
0.08657489 0.053784128 0.64728892
0.094695941 0.054768845 0.64261281
0.10402046 0.056095157 0.64070892
0.11672382 0.059428573 0.64000005
0.12544879 0.058863282 0.64011121
0.13509743 0.056977998 0.64111429
0.14476752 0.054387257 0.64416981
0.15095401 0.05243184 0.64657152
0.08867953 0.06303405 0.64887512
0.0948015 0.064538807 0.64595777
0.10511244 0.065187454 0.64225352
0.11498549 0.065335877 0.64187104
0.12518099 0.065326698 0.64261907
0.13540085 0.064835392 0.64559644
0.14273681 0.063912235 0.64824009
0.096681468 0.074781708 0.64762259
0.10486396 0.075335756 0.64360279
0.11491047 0.075275667 0.643354
0.12466378 0.07519117 0.64401519
0.13426654 0.074803621 0.64624566
0.14092574 0.07375937 0.64900005
0.094784282 0.081881829 0.64665222
0.10529457 0.081164487 0.64105886
0.11515195 0.081315413 0.64111769
0.12572274 0.081719726 0.64171427
0.13534731 0.081585579 0.64342862
0.14126539 0.081134602 0.64866674
0.079299316 -0.084846266 0.65785718
0.084990717 -0.084332325 0.65415633
0.09081009 -0.084230289 0.65130007
0.14841668 -0.08217857 0.65000004
0.15541092 -0.084043272 0.65422219
0.16255081 -0.082791284 0.65805268
0.078452379 -0.070293337 0.65900004
0.085114934 -0.075154006 0.65651441
0.091763727 -0.075724475 0.65280002
0.14687379 -0.077098191 0.65045452
0.15478356 -0.075659871 0.65434116
0.16142364 -0.078326859 0.65900004
0.077433102 -0.064056732 0.65844458
0.084678218 -0.065050982 0.65315729
0.09093181 -0.068385534 0.6504001
0.15573277 -0.065125324 0.65344113
0.16174859 -0.063530371 0.65827781
0.076545037 -0.054199908 0.65724391
0.08356183 -0.05640953 0.6521818
0.15700515 -0.056275722 0.65203452
0.16359781 -0.053680699 0.65711123
0.075581603 -0.045039304 0.6553278
0.081343286 -0.04784127 0.65144449
0.15844981 -0.045866534 0.65207148
0.1647391 -0.045056701 0.6552884
0.17044382 -0.043802667 0.65700001
0.069155112 -0.032343674 0.65671432
0.074577488 -0.035605751 0.65349215
0.080476195 -0.039619051 0.65000004
0.15940477 -0.034976192 0.65000004
0.16516849 -0.035696428 0.65305084
0.17117859 -0.034320004 0.655375
0.068446912 -0.024561342 0.65692604
0.073425338 -0.025588293 0.65258533
0.16617335 -0.025436016 0.65240628
0.17209733 -0.025414806 0.65818191
0.067497037 -0.014896049 0.65717512
0.072783202 -0.015883122 0.65203029
0.16666228 -0.01554543 0.65295005
0.17246026 -0.014156975 0.65805882
0.066787645 -0.0052905777 0.65610647
0.071656138 -0.0060759904 0.6515789
0.16663599 -0.0055960002 0.65285003
0.17308998 -0.0051087243 0.65695995
0.066945396 0.004701551 0.65592164
0.071269028 0.0046691322 0.65105885
0.16707887 0.0050166831 0.6532414
0.17131886 0.0046511702 0.65586358
0.067007452 0.014814946 0.65557784
0.071159683 0.016626988 0.65066671
0.16595049 0.015114905 0.65173519
0.17187066 0.015711335 0.65695
0.067478783 0.025032578 0.65546161
0.072259389 0.025789488 0.65159261
0.16608019 0.025589552 0.65200001
0.17124543 0.021297781 0.65783334
0.0680352 0.034844726 0.65561283
0.073373586 0.035914671 0.65182501
0.15940477 0.038690481 0.65000004
0.1642369 0.035095878 0.65347224
0.06872429 0.042050481 0.65900004
0.074268118 0.044864137 0.65390384
0.15903714 0.045385003 0.65487504
0.1622372 0.044144399 0.65495241
0.077196181 0.054680496 0.65507692
0.082872167 0.056988057 0.65200001
0.14939684 0.059015878 0.65000004
0.15573299 0.055274699 0.65380496
0.16138777 0.051823404 0.65900004
0.078683428 0.061394669 0.65780002
0.084708951 0.06535019 0.65563631
0.090380952 0.069333337 0.65000004
0.14689329 0.066091567 0.65157139
0.15213197 0.064018205 0.65466672
0.086687595 0.074894249 0.65602016
0.091628835 0.075206801 0.65133339
0.1393545 0.075248681 0.65000004
0.1447303 0.074930839 0.65336841
0.15119906 0.070894293 0.65875006
0.086794093 0.081889726 0.65247363
0.090840004 0.081961915 0.6503334
0.14386669 0.080971435 0.65000004
0.069980957 -0.084613338 0.66800004
0.074970201 -0.083363496 0.66464996
0.16644573 -0.080700956 0.66200006
0.075357616 -0.075260736 0.66472876
0.08057905 -0.076801904 0.66100001
0.15989904 -0.07554286 0.66100001
0.16526799 -0.074811779 0.66290379
0.17048953 -0.076856196 0.66425008
0.069181383 -0.062829204 0.66711116
0.07310275 -0.065461278 0.66329736
0.16650414 -0.065629922 0.66383868
0.17159986 -0.063875251 0.66733336
0.067838587 -0.054627903 0.66593552
0.072016992 -0.055631422 0.66187507
0.16787049 -0.05566683 0.6615653
0.17145686 -0.055376124 0.66300005
0.066279046 -0.044680037 0.66487998
0.070677385 -0.045805953 0.66112506
0.17205524 -0.048528574 0.66175008
0.065134123 -0.034816384 0.66489089
0.063599788 -0.024901645 0.66425002
0.17430034 -0.020999683 0.6615001
0.062551476 -0.014689278 0.66412908
0.17500763 -0.015108572 0.66100001
0.21592306 -0.016286479 0.66800016
0.22075811 -0.014632381 0.66800004
0.059239246 -0.0022887622 0.66740006
0.061807524 -0.0051278197 0.66368431
0.17626667 -0.0088133328 0.66100001
0.059229903 0.0037147251 0.667077
0.061808333 0.0044164294 0.66225004
0.059154559 0.014915682 0.66740006
0.062105957 0.01485926 0.66244441
0.058949977 0.024225146 0.66700006
0.062675036 0.024751864 0.66375762
0.17325002 0.022050478 0.66150004
0.063673794 0.034786236 0.66445708
0.17251343 0.035989746 0.66746157
0.18523289 0.034261432 0.66744995
0.066615015 0.044825215 0.66394114
0.070874766 0.048195239 0.66150004
0.16631839 0.048895787 0.6680001
0.18640383 0.041352384 0.66800004
0.067653514 0.054571606 0.66624999
0.072493777 0.055467252 0.66229999
0.16731811 0.05089524 0.66800004
0.075527094 0.065030366 0.66447991
0.08057905 0.068618096 0.66100001
0.078548804 0.073700063 0.66641182
0.08193592 0.075678632 0.66304004
0.078887627 0.081432387 0.6680001
0.081343576 0.081506908 0.66600001
0.065838717 -0.082512654 0.67314285
0.070190482 -0.081038103 0.67000002
0.20240666 -0.086006671 0.67899996
0.21922001 -0.084066674 0.67900002
0.22525197 -0.082599424 0.67786503
0.2307 -0.082255721 0.67475003
0.066255525 -0.075094223 0.6748085
0.070229769 -0.074697137 0.67037505
0.17548107 -0.072706394 0.67615008
0.18106668 -0.071780004 0.67900002
0.22885926 -0.076156102 0.67825007
0.23097079 -0.074376084 0.67450005
0.059493333 -0.062080003 0.67900008
0.065050244 -0.064899296 0.6746875
0.070190482 -0.068276197 0.67000002
0.17573126 -0.06702961 0.67318183
0.18106668 -0.069193333 0.67900002
0.2298743 -0.064140961 0.67800009
0.23314275 -0.064344488 0.67429423
0.059493333 -0.059493333 0.67900002
0.062946022 -0.055387221 0.67378956
0.18704021 -0.053080957 0.67877781
0.19012001 -0.051086668 0.67900002
0.22919621 -0.058586672 0.67600006
0.23430893 -0.054994371 0.67314541
0.24078479 -0.052792381 0.67600006
0.059111297 -0.043040819 0.67885715
0.061531711 -0.045764763 0.67305005
0.19330359 -0.045095 0.67768747
0.22932048 -0.043168098 0.67400002
0.23408638 -0.045243707 0.67163485
0.058087241 -0.03467733 0.67545003
0.060555711 -0.036038417 0.67166662
0.19594 -0.038800001 0.67900002
0.22879167 -0.034402508 0.67421043
0.23293152 -0.035585225 0.67121416
0.057812307 -0.024905946 0.67375684
0.060070477 -0.029396191 0.671
0.2258365 -0.025003368 0.6740489
0.23086511 -0.026000321 0.67149997
0.0573131 -0.014709725 0.67362797
0.060070477 -0.011502857 0.671
0.20854285 -0.010799999 0.67500001
0.21562445 -0.013043322 0.67107683
0.22345687 -0.017565308 0.67228574
0.05668899 -0.0054070377 0.67222226
0.20590262 -0.0043878281 0.67439002
0.21327686 -0.0055464404 0.67211926
0.055660754 0.0049954094 0.67284614
0.18835714 0.0089999996 0.67500001
0.19588871 0.0054946169 0.67294246
0.20454445 0.0036787952 0.67132652
0.21208385 0.0014772164 0.67230767
0.056240428 0.014278521 0.6722222
0.17973334 0.019257143 0.67400002
0.18556266 0.015509298 0.67493588
0.19359322 0.013775017 0.6729219
0.2015581 0.010270476 0.67400002
0.057450097 0.023463048 0.67330003
0.17741282 0.026027214 0.67250001
0.18446159 0.024906099 0.67187935
0.19043176 0.02096889 0.67400002
0.058792382 0.031952381 0.671
0.0605103 0.035191171 0.67072731
0.1764788 0.035192378 0.67082846
0.18211539 0.035418164 0.67126667
0.062959313 0.046283435 0.67572004
0.16953395 0.045681693 0.67033339
0.17444927 0.043660663 0.6723637
0.18260318 0.041895401 0.67158341
0.065588094 0.057290241 0.67025006
0.067553811 0.06164524 0.67075002
0.071489953 0.065532483 0.67022228
0.075430669 0.075618714 0.67246425
0.07591112 0.081661105 0.67075002
0.060876191 -0.081600003 0.68000001
0.19688787 -0.082664452 0.68239987
0.20560513 -0.083326876 0.68290919
0.21442606 -0.083423123 0.68286055
0.22062223 -0.08073651 0.68000001
0.061647139 -0.074623808 0.68137503
0.17874286 -0.074476197 0.68000001
0.1865598 -0.073354989 0.68225926
0.19415222 -0.075515479 0.68304175
0.20477779 -0.078257255 0.68476188
0.21601261 -0.078664407 0.6861428
0.22420283 -0.074438393 0.6822322
0.061576061 -0.068463951 0.68371433
0.17890592 -0.062148571 0.68260002
0.18542454 -0.065115541 0.68203557
0.19235256 -0.065676771 0.68210012
0.22848357 -0.066779286 0.68156254
0.23098414 -0.066920638 0.68000001
0.057997957 -0.054630332 0.68229634
0.17843077 -0.055681504 0.68092853
0.18390769 -0.055742379 0.68054187
0.19039999 -0.058933333 0.68000001
0.05671607 -0.045308147 0.68277419
0.17885733 -0.045254134 0.68208349
0.18497615 -0.044781048 0.68149978
0.19331311 -0.043029085 0.68061554
0.054752044 -0.035335567 0.68160868
0.17953143 -0.038377143 0.68300003
0.18548472 -0.036623437 0.68191677
0.19357775 -0.036218558 0.68088901
0.054021858 -0.02495846 0.68461907
0.049798097 -0.011139048 0.68800002
0.05278568 -0.014829715 0.6853199
0.048659835 -0.0045422968 0.68717659
0.052303642 -0.0053950655 0.68495452
0.048951905 0.0039291671 0.68762505
0.05191629 0.0040439046 0.68484998
0.19817142 0.0012952382 0.68000001
0.049746398 0.014401633 0.68728572
0.052704256 0.015266605 0.68493342
0.05467106 0.024780031 0.68687886
0.057520639 0.030067939 0.68633342
0.057005715 -0.070262857 0.69600004
0.21746115 -0.076786861 0.69150001
0.2207 -0.07444524 0.69175005
0.057642363 -0.064809673 0.69155997
0.061291426 -0.066562861 0.69200003
0.055938095 -0.059228573 0.69100004
0.04919238 -0.041215237 0.69800001
0.052286755 -0.042385802 0.69736367
0.04580142 -0.03503396 0.69595742
0.051440641 -0.034960002 0.69250005
0.039885715 -0.023266666 0.69800001
0.045192666 -0.025023911 0.69531924
0.051114917 -0.02544963 0.69105554
0.039442539 -0.014735556 0.69800007
0.045099944 -0.015151396 0.69370705
0.050547488 -0.018039186 0.69057149
0.038774606 -0.0048748148 0.69794446
0.044018853 -0.0055882297 0.6934104
0.039212789 0.0044632656 0.69785714
0.044281077 0.0048439689 0.69320846
0.039885715 0.011300953 0.69800001
0.045576692 0.014573939 0.69434065
0.048294287 0.023434445 0.69308329
0.051458731 0.026772862 0.69125003
0.05517102 0.03314738 0.69033355
0.037356973 -0.0535377 0.70788246
0.042970672 -0.054078333 0.70764005
0.036322381 -0.045073096 0.70632523
0.043983806 -0.044931162 0.70361996
0.035237007 -0.034649059 0.70504451
0.040678911 -0.034678098 0.70021427
0.029668573 -0.022925712 0.708
0.034858 -0.024811158 0.70405376
0.040533334 -0.028266668 0.70000005
0.029283265 -0.014641632 0.70800006
0.034464464 -0.014825228 0.70328903
0.034320246 -0.0060369275 0.70177418
0.036528993 0.0031180952 0.70166671
0.026330052 -0.07414785 0.7172069
0.032857444 -0.074070558 0.71496761
0.027250292 -0.065565497 0.71539992
0.035098769 -0.064982325 0.7122978
0.041360546 -0.062235385 0.71028578
0.027956126 -0.054955274 0.71435481
0.033842687 -0.056063537 0.7107355
0.041653335 -0.058963817 0.71000004
0.027081268 -0.044838887 0.71397239
0.031796601 -0.044650618 0.71035725
0.027574776 -0.035871919 0.71293098
0.031453811 -0.038218573 0.71025002
0.029076194 -0.028400002 0.71000004
0.019253334 -0.090765722 0.72200006
0.021257143 -0.090514287 0.72000003
0.005887398 -0.08413808 0.72665107
0.015100803 -0.084793888 0.72223997
0.023979949 -0.084326014 0.72047365
0.0066517917 -0.077031478 0.72647631
0.015715104 -0.076587379 0.72391421
0.02255922 -0.076495767 0.72186375
0.02287746 -0.068177782 0.72066677
0.0013904762 -0.080647618 0.73000002
0.0013904762 -0.079257146 0.73000002
