# .PCD v0.7 - Point Cloud Data file format
VERSION 0.7
FIELDS x y z
SIZE 4 4 4
TYPE F F F
COUNT 1 1 1
WIDTH 1395
HEIGHT 1
VIEWPOINT 0 0 0 1 0 0 0
POINTS 1395
DATA ascii
0.045421176 0.12514468 0.65509665
0.055028468 0.12500484 0.6542412
0.065125689 0.12520641 0.65514272
0.075174972 0.12523939 0.65496755
0.08540079 0.12507112 0.65478671
0.095306285 0.12520741 0.65406221
0.10521574 0.12473623 0.65310156
0.11500537 0.12505181 0.65675461
0.12190141 0.1244119 0.6589601
-0.16390502 0.13429613 0.65343761
-0.15515876 0.13338 0.6535477
-0.14507891 0.13394161 0.65444672
-0.13501301 0.13402344 0.6539591
-0.12442216 0.1342451 0.65153462
-0.11525123 0.13433231 0.65276808
-0.10480348 0.13396795 0.65288252
-0.09506584 0.13420965 0.65241086
-0.085004658 0.13470265 0.652547
-0.07519643 0.13415587 0.65329242
-0.064887986 0.13393812 0.65378773
-0.05535927 0.13483989 0.65298474
-0.045155033 0.13453124 0.6526165
-0.036042195 0.13426308 0.6536271
-0.024835465 0.13245159 0.65354759
-0.014932488 0.13406309 0.65218514
-0.0056150542 0.1347862 0.65333349
0.0049642324 0.13472575 0.65193039
0.014836369 0.134496 0.65396297
0.025570078 0.13401277 0.65404832
0.035389345 0.13529785 0.65398496
0.044941362 0.13504411 0.65410012
0.055621959 0.13492396 0.65201527
0.065224618 0.13494009 0.65478855
0.075306602 0.13576776 0.65451556
0.08460363 0.13521123 0.65498668
0.095190667 0.13540669 0.65478551
0.10460811 0.13512821 0.65322423
0.11446359 0.13414125 0.65742886
0.12113048 0.13054477 0.65900004
-0.16406684 0.14417432 0.65817398
-0.12149523 0.14351089 0.65833336
-0.11873588 0.14231969 0.65733337
-0.10110286 0.14120951 0.65800011
-0.095332697 0.14091353 0.65740013
-0.084598094 0.14162666 0.65800005
-0.054960765 0.14050744 0.65280002
-0.046671022 0.14125334 0.65214288
-0.033380952 0.14203002 0.65550005
-0.023195477 0.14356096 0.65825003
-0.012201111 0.14360397 0.65700001
-0.004846429 0.14334024 0.6565001
0.0065278574 0.14136679 0.65281254
0.013006842 0.14341506 0.65340918
0.026862582 0.14275649 0.65223813
0.034441344 0.14304218 0.65196288
0.045022905 0.14379841 0.65205002
0.055008423 0.14317796 0.65094733
0.065680325 0.14354067 0.654275
0.074880511 0.14348829 0.65351349
0.085397027 0.14341177 0.65335292
0.095380202 0.14450286 0.65356588
0.10294276 0.14403684 0.65190005
-0.16506381 0.1512562 0.65899998
0.097850487 0.1523665 0.65791672
0.10219917 0.15204616 0.65788889
0.038086191 -0.13660668 0.66100001
0.040619526 -0.13886286 0.66125
0.050361905 -0.13094096 0.66100001
0.033542987 -0.12291162 0.66206676
0.050621528 -0.12453829 0.66110009
0.035259046 -0.1146557 0.66208172
0.043831091 -0.11257556 0.66200012
0.050908573 -0.11652827 0.66266668
0.0072334697 -0.10183293 0.66471434
0.012164525 -0.10221143 0.66350001
0.035432048 -0.10626136 0.66226476
0.04494679 -0.10760599 0.66321212
0.051363818 -0.10708164 0.667
-0.0018971429 -0.094224766 0.66400003
0.0032647622 -0.097453788 0.66294128
0.01133143 -0.099464767 0.66100001
0.077701233 -0.095148042 0.66100001
0.08057905 -0.094428569 0.66100001
-0.022662858 -0.076801904 0.66100001
0.10184296 -0.071765713 0.66100007
-0.021790925 -0.063136809 0.66370589
-0.018914286 -0.062414289 0.66200006
0.099615246 -0.063047625 0.66200006
0.10300006 -0.064430818 0.66135293
-0.021375934 -0.054759402 0.66368175
-0.018777566 -0.054652069 0.66211122
0.099355422 -0.054029722 0.66280007
0.10515141 -0.054838166 0.66250783
0.11211701 -0.052631162 0.66242868
0.15344641 -0.052093096 0.66100001
0.16114414 -0.050909847 0.66266674
-0.022183275 -0.04499102 0.66540629
-0.018758519 -0.044375662 0.66144449
0.099187732 -0.045586664 0.66477782
0.1048659 -0.045609254 0.66517299
0.11357686 -0.045686498 0.66539001
0.14969142 -0.040594287 0.66600001
0.15454336 -0.044788349 0.66186279
0.16020143 -0.047302861 0.66225004
-0.021423904 -0.03561962 0.6654501
-0.018903574 -0.034658812 0.66162503
0.14717019 -0.033571322 0.66658831
0.1520627 -0.035250753 0.66350001
-0.020850616 -0.024927622 0.66628575
-0.01807926 -0.024312912 0.66216671
0.14616112 -0.026462138 0.66712493
0.15144724 -0.027098669 0.66479999
-0.020337779 -0.017794287 0.66733336
-0.018030375 -0.014035387 0.66357905
0.095571183 -0.012858796 0.66193342
-0.016944434 -0.004714089 0.66465521
0.095946193 -0.007743096 0.66387504
-0.014399748 0.0040975949 0.66465795
0.088660799 0.0056814291 0.66258341
0.091626346 0.0049247621 0.66349995
-0.012032573 0.013843874 0.66470009
-0.0082942853 0.015643494 0.66141677
0.087173693 0.015167105 0.6648379
0.092088528 0.013411026 0.66563147
-0.010485715 0.021289051 0.66725004
-0.0056597735 0.025150023 0.66328567
0 0.028958095 0.66100001
0.077922232 0.026792593 0.66277778
0.083663158 0.024571942 0.66656756
0.09033905 0.020358097 0.66800004
-0.0033308335 0.034197319 0.66565627
0.0030135193 0.035701837 0.66243893
0.010072381 0.039030477 0.66100001
0.068587765 0.037804902 0.66157144
0.075201519 0.035161667 0.66466665
0.081893936 0.032385793 0.66776931
-0.0019076192 0.040685717 0.66750002
0.0054681739 0.044327028 0.66604167
0.013647528 0.046249386 0.66302389
0.022669844 0.048699684 0.66122228
0.056797091 0.047751937 0.66176468
0.065470517 0.04529627 0.66440392
0.072825156 0.043111235 0.66665
0.0076320646 0.051518735 0.66783345
0.015112858 0.052806139 0.66649997
0.024699241 0.055109274 0.66501659
0.034660377 0.055854641 0.66379255
0.045091327 0.055669986 0.66359973
0.054179829 0.053896055 0.66499996
0.062789619 0.051824413 0.66654557
0.029264765 0.06107429 0.66800004
0.034990478 0.06107429 0.6680001
0.041988574 0.061074294 0.6680001
-0.19085714 0.089066669 0.66800004
-0.18444936 0.087703228 0.66516125
-0.17504418 0.086696379 0.66429549
-0.16455118 0.086096108 0.66349047
-0.15571533 0.086113095 0.66431999
-0.14517497 0.087223142 0.6639486
-0.13526277 0.08734709 0.66415387
-0.12534031 0.08756046 0.66470277
-0.1148378 0.087535605 0.66451359
-0.10479222 0.087640166 0.66402936
-0.094715834 0.087056085 0.6649999
-0.084752016 0.086865425 0.66579169
-0.07592763 0.088672467 0.66630441
-0.067436196 0.089066677 0.66800004
-0.041352384 0.089066669 0.66800004
-0.033358335 0.088471912 0.66712499
-0.025620552 0.088809028 0.66557884
-0.011282287 0.08770515 0.66539997
-0.0053075566 0.088931695 0.66320014
0.0037926533 0.089720815 0.66342866
0.013879049 0.088977329 0.66260004
0.025966858 0.089500569 0.66180009
0.030846667 0.088762857 0.66100001
0.048060954 0.089798093 0.66400003
0.055298861 0.089331619 0.66430008
0.06547524 0.089000002 0.66750002
-0.19345434 0.09549544 0.66619354
-0.18641447 0.09465386 0.661865
-0.17406332 0.09065143 0.66100001
-0.16871238 0.090651438 0.66100001
-0.15675142 0.090651438 0.66100001
-0.14772826 0.090651438 0.66100001
-0.13345906 0.090651438 0.66100001
-0.1214981 0.09065143 0.66100001
-0.11520286 0.090651438 0.66100001
-0.10513047 0.090651438 0.66100001
-0.095094755 0.090685725 0.66125005
-0.084490709 0.091419652 0.66143769
-0.07465487 0.09201064 0.66173089
-0.065217383 0.091715977 0.66348499
-0.054638505 0.09229961 0.66295117
-0.045144469 0.09216547 0.66310245
-0.035020676 0.091963485 0.66306084
-0.024307443 0.092051022 0.66270381
-0.014599212 0.091801308 0.66337931
-0.0049072318 0.092675835 0.66248143
0.0045521501 0.092654556 0.66251522
0.013803811 0.092719294 0.66242856
0.024535388 0.092044197 0.66124004
0.034028955 0.09212058 0.66160011
0.046093144 0.093622282 0.66331029
0.054997254 0.093913406 0.66265309
0.065170631 0.093862653 0.66424561
0.074660614 0.095996261 0.6643514
0.085352965 0.096301846 0.66308337
0.094787128 0.095340796 0.66104013
0.1043964 0.09613926 0.66122228
0.11511199 0.098051354 0.6631667
0.12314028 0.098763295 0.66709101
-0.19312106 0.1047092 0.66526675
-0.18654649 0.1055354 0.66161531
0.11712762 0.10075428 0.66119999
0.125873 0.10369355 0.66338634
0.13196976 0.10642715 0.66618758
-0.19261551 0.11475983 0.66695249
-0.18455236 0.11525466 0.66232145
-0.17791827 0.11769645 0.66118193
0.12818646 0.11594139 0.66122228
0.13328962 0.11556953 0.66453338
-0.19129857 0.12292119 0.66787511
-0.18472102 0.12493554 0.66430622
-0.17694943 0.12540253 0.66166669
0.12654273 0.12545586 0.6613794
0.13327345 0.12474256 0.66651279
-0.18307465 0.1348159 0.66674358
-0.17557295 0.135582 0.66479069
-0.16946954 0.13734096 0.66150004
-0.15599981 0.13891493 0.66166675
-0.14418288 0.13912381 0.66400003
-0.13541588 0.13982478 0.66133338
-0.1296819 0.1397543 0.66100001
-0.11334896 0.13979658 0.66119999
-0.1082781 0.1397543 0.66100001
0.11716356 0.13832712 0.66140014
0.12538773 0.13537386 0.66396004
0.13211286 0.13354273 0.66731256
-0.18165281 0.14205171 0.66757149
-0.17426719 0.144227 0.66559529
-0.16464111 0.14592403 0.66223675
-0.15524729 0.14525034 0.66565078
-0.14540161 0.14540444 0.66636515
-0.13486674 0.14563774 0.66483939
-0.12578933 0.14626674 0.66294438
-0.11469754 0.14585777 0.66403699
-0.10540826 0.14590938 0.66436172
-0.094761156 0.14645974 0.66355008
-0.085218161 0.14621727 0.66360462
-0.075142577 0.1457095 0.66498196
-0.06549754 0.14583263 0.664868
-0.055137184 0.14662236 0.66414618
-0.044497665 0.14685485 0.66386467
-0.035132635 0.14664239 0.66451222
-0.024639802 0.14722344 0.66275871
-0.015447823 0.14694713 0.66200006
-0.0047881911 0.14794694 0.66160011
0.0038906673 0.1465369 0.66205722
0.015786124 0.14826314 0.66285723
0.023658305 0.14814605 0.66350001
0.034231272 0.14826033 0.66150016
0.049177147 0.14879239 0.66200006
0.055827789 0.14872669 0.6635834
0.06262368 0.14872026 0.66328573
0.074181907 0.14886437 0.66120005
0.085031666 0.1486519 0.66137505
0.091280952 0.14856762 0.66100001
0.10892826 0.1457717 0.66240007
0.11510548 0.14526224 0.6634798
0.12431142 0.14454852 0.66593331
0.13105524 0.14187048 0.66800004
-0.17151484 0.15445553 0.66700011
-0.16450384 0.1547073 0.66310817
-0.15420733 0.15253524 0.66763169
-0.14515404 0.15296467 0.66742843
-0.13501491 0.15265195 0.6676088
-0.12445406 0.15387259 0.66479492
-0.11514419 0.15410352 0.66626519
-0.10484515 0.15504584 0.66719633
-0.094646074 0.15499197 0.66696429
-0.084644653 0.1551055 0.66694438
-0.075128973 0.15481679 0.66674507
-0.065418266 0.15497446 0.66689283
-0.055261675 0.15498856 0.66694647
-0.045235615 0.15447888 0.66671997
-0.034749329 0.1547367 0.66679245
-0.024708711 0.15458719 0.66521442
-0.014564219 0.15450829 0.66487497
-0.0050658891 0.15449984 0.6648367
0.0045095738 0.1545447 0.66464901
0.014480369 0.15454777 0.66466665
0.02459077 0.154704 0.66461021
0.034989864 0.15478435 0.66494924
0.044788856 0.15473273 0.664729
0.055102687 0.15517564 0.66503131
0.065134615 0.15474544 0.66445023
0.075373426 0.15495434 0.66438991
0.085476585 0.15476844 0.66388702
0.094309501 0.15532808 0.66275001
0.10570421 0.1556499 0.66405398
0.11462293 0.15454499 0.66596222
0.12166414 0.15197366 0.66766667
-0.16688097 0.16566832 0.66718197
-0.12133048 0.16071525 0.66700006
-0.11878952 0.16008002 0.66700006
-0.10242667 0.16032001 0.66800004
-0.093873449 0.16130966 0.6680001
-0.088430479 0.16032001 0.66800004
-0.075070493 0.1612009 0.66800016
-0.068708584 0.16032001 0.6680001
-0.031233655 0.16210456 0.66777784
-0.025722958 0.16201922 0.66781491
-0.014060729 0.16239984 0.6674704
-0.0055665681 0.16226734 0.66734469
0.0043596374 0.16140573 0.66747624
0.013774446 0.16085619 0.66758341
0.025683109 0.16274375 0.66749996
0.034155101 0.16300011 0.66765708
0.045833521 0.1635069 0.66752368
0.054932728 0.16478495 0.66416943
0.065446429 0.16317122 0.66770267
0.074960418 0.16334918 0.66737485
0.084728383 0.1637679 0.66747594
0.094694018 0.16471572 0.66605663
0.10455929 0.16352935 0.66728938
0.11226498 0.16237681 0.66752946
0.054830469 0.17227893 0.66750008
0.096675083 0.17387983 0.66491669
0.049771432 -0.10464762 0.67000002
0.051047619 -0.10464762 0.67000002
-0.026062224 -0.042071745 0.67283338
0.11996191 -0.04466667 0.67000002
-0.025488954 -0.03485956 0.67450011
-0.023363471 -0.024641005 0.67047054
0.13700092 -0.022999084 0.67222226
0.14329797 -0.02274354 0.67000002
-0.023140736 -0.014459593 0.67265713
0.12713633 -0.010871837 0.67714292
0.1350746 -0.014479876 0.67343551
0.14206252 -0.017989267 0.67027283
-0.021991059 -0.0055537894 0.67052174
0.11819314 -0.0033624761 0.67889994
0.12451389 -0.0050195251 0.67667884
0.13305596 -0.0070439517 0.67481482
-0.022281842 0.004615698 0.67434484
-0.018074032 0.0063100955 0.67133331
0.11768166 0.002586667 0.67893338
0.12390302 0.0023315349 0.67722231
-0.021681797 0.014719895 0.67844445
-0.017012605 0.015389971 0.67317635
-0.020670477 0.022607621 0.67825001
-0.014729805 0.025006657 0.67476344
-0.0089333337 0.028714288 0.67000002
0.088213757 0.025031853 0.67011112
0.091155946 0.023787856 0.67050004
-0.011896797 0.034043375 0.67672735
-0.0074738096 0.036137544 0.67250007
0.07912381 0.039561905 0.67000002
0.084027588 0.035392519 0.67066658
-0.010988254 0.041366667 0.67866671
-0.0047147367 0.044631887 0.67602634
0.0013756776 0.047049813 0.67176932
0.068914287 0.049771432 0.67000002
0.076272957 0.045997646 0.67259997
0.081170954 0.042030476 0.67375004
-0.0019387304 0.051695876 0.67850006
0.00456591 0.054325465 0.67371798
0.014013015 0.057399046 0.67149997
0.021057144 0.059980955 0.67000002
0.057031911 0.057670318 0.67033339
0.065566882 0.056089528 0.6732927
0.073295534 0.052430086 0.67568427
0.0087138098 0.061644286 0.67774999
0.015437871 0.062712841 0.67552936
0.025061101 0.065561846 0.67479616
0.035272148 0.06606473 0.67339581
0.045141738 0.065366291 0.67336947
0.054659583 0.06391944 0.6748001
0.064162903 0.062441289 0.67718518
-0.18409353 0.079503998 0.67540008
-0.14163813 0.07983239 0.67600006
0.027806668 0.071133338 0.67900002
0.035117462 0.071637318 0.67866671
0.041048571 0.071430475 0.67875004
-0.19357654 0.085941344 0.67379308
-0.18494536 0.082919717 0.67249995
-0.1756058 0.082757935 0.6762501
-0.1660362 0.082804129 0.67750001
-0.1535762 0.082514852 0.67640007
-0.14533643 0.082431592 0.67347074
-0.13422841 0.082367241 0.67166662
-0.12509334 0.08338961 0.67578781
-0.11618742 0.08391238 0.67316669
-0.10657313 0.085119791 0.67144448
-0.097846195 0.084417149 0.67149997
-0.074238695 0.085666738 0.67406887
-0.064431332 0.085830562 0.67487746
-0.055401392 0.086068496 0.67614561
-0.045849074 0.088288061 0.67223811
-0.03811086 0.087985151 0.67140001
-0.024026576 0.086483084 0.67242867
-0.016641526 0.088336267 0.67213327
0.026513334 0.08924 0.67900002
0.038153335 0.08924 0.67900002
0.04200238 0.089174286 0.67850006
0.077777967 0.089151844 0.6741429
0.082569145 0.088997342 0.6752001
-0.20061618 0.098061904 0.67299998
-0.19655065 0.094037749 0.67045462
-0.01595238 0.090609521 0.67000002
0.027806668 0.090533338 0.67900002
0.038453333 0.09151689 0.67500007
0.042657144 0.092039287 0.6735
0.076571435 0.092481807 0.67214292
0.084536724 0.092458814 0.67275
0.092786931 0.092868447 0.67593342
0.10791774 0.096953452 0.67700005
0.11624373 0.095606923 0.67540914
0.12457909 0.095577642 0.67144096
0.13178267 0.098387621 0.67169994
-0.19791688 0.10470597 0.67036372
0.13376871 0.1017845 0.67157143
-0.20163195 0.11623873 0.67472225
-0.19719251 0.11612476 0.67199993
-0.20122178 0.12209007 0.67471439
-0.19581781 0.12551196 0.6720264
-0.20079939 0.13681081 0.67866671
-0.19453894 0.13476044 0.67351073
-0.18812265 0.13664675 0.67046154
0.13436463 0.13600545 0.67000002
-0.1938462 0.14485165 0.67689657
-0.18559659 0.14553471 0.67140013
-0.17850715 0.14787859 0.67000002
0.12828921 0.14807525 0.67016667
0.13186808 0.14610441 0.67126673
-0.1925431 0.15371895 0.67816669
-0.18506302 0.15506026 0.67441177
-0.17608105 0.15521868 0.67091888
-0.16193178 0.15717335 0.67036366
-0.155487 0.15736638 0.67055869
-0.14498365 0.15808707 0.67051846
-0.13520457 0.15759371 0.6704374
-0.12689124 0.15880571 0.67020005
-0.11516021 0.15898307 0.67011118
-0.044028573 0.15952383 0.67000002
-0.038285714 0.15952381 0.67000002
0.11868571 0.15952381 0.67000002
0.12550643 0.15520936 0.67099994
0.13296679 0.15362889 0.67555553
-0.18409684 0.16462833 0.67671794
-0.1754816 0.16485873 0.67359561
-0.16361381 0.16464974 0.67143488
-0.15475523 0.16545789 0.67275006
-0.1451007 0.16506252 0.67233968
-0.13491154 0.16496336 0.67135739
-0.1252809 0.16568936 0.6711697
-0.11504439 0.1651279 0.67151946
-0.10534201 0.16485851 0.67082673
-0.095349774 0.16534135 0.67068076
-0.084931441 0.16516499 0.67087519
-0.074683227 0.16589221 0.67104757
-0.064399131 0.16501427 0.67098117
-0.054975547 0.16492726 0.67120391
-0.045371193 0.16487035 0.67098212
-0.035616744 0.16567062 0.67050934
-0.024216939 0.16727734 0.67010814
-0.015316953 0.16784437 0.67010003
-0.0045861024 0.16786098 0.6702593
0.0044074384 0.1670709 0.67028564
0.014971877 0.16634396 0.67035276
0.024212658 0.16759226 0.67016125
0.035831507 0.16806446 0.67000002
0.044263661 0.1685243 0.67000002
0.059980955 0.16909525 0.67000002
0.065277152 0.16852093 0.67000002
0.074666932 0.16859619 0.67009097
0.083853222 0.16875738 0.67000002
0.091885716 0.16973333 0.67000002
0.10634901 0.16837114 0.67038095
0.11580348 0.16616195 0.67075002
0.12471604 0.16523883 0.67394334
0.13084319 0.16838127 0.67566675
-0.1821816 0.17184445 0.67833334
-0.17562017 0.17243159 0.67636836
-0.16256301 0.17444886 0.67665219
-0.15512255 0.1753003 0.67707545
-0.1450408 0.17528665 0.6764527
-0.13513604 0.17465155 0.67466658
-0.12503082 0.17485926 0.67500007
-0.11497198 0.17484528 0.67538869
-0.10490695 0.17499855 0.67525458
-0.094979405 0.1747916 0.67453855
-0.085083902 0.17459281 0.6738655
-0.075100496 0.17459892 0.67398232
-0.064912826 0.17481966 0.67483932
-0.054743811 0.17476891 0.6741851
-0.045118429 0.17441195 0.67374504
-0.035431203 0.17493007 0.67348003
-0.024874358 0.1750185 0.67243987
-0.014737343 0.17494121 0.67283332
-0.0051300228 0.17509554 0.67342854
0.0045752381 0.17498541 0.67265302
0.014718947 0.17536865 0.67201799
0.02480875 0.17515866 0.67175931
0.035210758 0.1747679 0.67216653
0.045370497 0.17476177 0.67240411
0.055024758 0.17588024 0.67123997
0.064922713 0.17480637 0.67182219
0.075130805 0.1751364 0.67256856
0.085045546 0.17521486 0.67142874
0.093393452 0.17544323 0.6705882
0.10483055 0.17516853 0.67281991
0.11526299 0.17504187 0.67387742
0.12412387 0.17448598 0.6769715
0.13108 0.17176001 0.67800003
-0.15326001 0.18106668 0.67900002
-0.14403048 0.18084446 0.67816675
-0.13543747 0.1805778 0.6771667
-0.12065207 0.18140891 0.67866677
-0.11534072 0.18168785 0.67800015
-0.10463931 0.18156822 0.67731589
-0.095195644 0.18137735 0.67629993
-0.084769748 0.18144135 0.67670596
-0.075143054 0.18237087 0.67737937
-0.065067656 0.1825456 0.67751604
-0.055216007 0.18223649 0.67796004
-0.044584882 0.18316855 0.67812908
-0.03562681 0.18190163 0.67575008
-0.025441976 0.18194827 0.67507148
-0.014548727 0.18265654 0.67608112
-0.0051483545 0.18278891 0.67580003
0.0043882788 0.18282643 0.67569232
0.014655451 0.18334906 0.67662966
0.025397699 0.18438727 0.67693031
0.035178121 0.18411712 0.67647159
0.044925082 0.18479627 0.67628038
0.054427113 0.18416844 0.67621797
0.065006554 0.18472858 0.67582804
0.075140268 0.18493019 0.67575383
0.084877521 0.18489392 0.67560858
0.094692968 0.18507454 0.67493612
0.10516004 0.18502651 0.67571914
0.11479389 0.18412869 0.67786068
0.12083763 0.18158001 0.67850006
0.065045476 0.19063811 0.67625004
0.072991915 0.19120191 0.67825007
0.086653337 0.19012003 0.67900008
0.097426675 0.19034383 0.67750001
0.10501714 0.19155048 0.67807698
0.11510666 0.20831902 0.67900002
0.11446001 0.21146001 0.67900002
-0.071772568 -0.10307391 0.68760014
-0.064678989 -0.10320918 0.6872974
-0.055446353 -0.10265843 0.68640751
-0.049689524 -0.10199334 0.68650007
-0.072469339 -0.098547816 0.68800014
-0.064150624 -0.097745195 0.68782145
-0.054599389 -0.095440067 0.68716335
-0.046352055 -0.093598805 0.68714648
-0.051632762 -0.088064 0.68800002
-0.044861171 -0.085363545 0.68765378
-0.039314289 -0.08714667 0.68800002
-0.04351452 -0.076041199 0.6879999
-0.041280001 -0.060281906 0.68800002
-0.038003813 -0.06028191 0.68800008
-0.041148957 -0.055957343 0.68800014
-0.035412196 -0.054581124 0.68746799
-0.027364954 -0.052635998 0.68740016
-0.034637921 -0.045455027 0.68614835
-0.02823931 -0.045299307 0.68381828
-0.032925852 -0.034812085 0.6857242
-0.029418359 -0.034378011 0.68227279
-0.031609904 -0.025848666 0.68715
-0.027257299 -0.025484268 0.68403995
-0.030140953 -0.019657144 0.68800002
-0.027770869 -0.015264203 0.68464702
-0.02641524 -0.0086603183 0.68200004
0.1156862 -0.0048037269 0.68243486
-0.024609523 0.0090666674 0.68000001
0.10708686 0.0065136002 0.68395996
0.11380956 0.0051934808 0.68157768
-0.022944763 0.015367938 0.68183345
0.097833201 0.01656381 0.68657154
0.10511649 0.015019881 0.68556273
0.111907 0.012815239 0.68383348
-0.022083811 0.021434288 0.68200004
0.097247906 0.023299048 0.68715012
0.10443278 0.022632383 0.68712509
0.11008 0.021622857 0.68800002
-0.015386139 0.03560698 0.6825
0.096320003 0.037348576 0.68800002
-0.012333016 0.04240413 0.68150008
-0.0071326992 0.048199996 0.68083334
-0.0043063094 0.053183932 0.68206245
0.0021260609 0.058276713 0.68263644
0.074716099 0.056484018 0.68126327
0.0059997407 0.063704863 0.6863637
0.013941994 0.067551434 0.68259096
0.02072381 0.069942862 0.68000001
0.047923807 0.069942862 0.68000001
0.057056006 0.068360761 0.68230003
0.063907698 0.067314588 0.6826154
0.072442859 0.062324289 0.68525004
-0.19124 0.079358101 0.68300003
-0.18460657 0.078573614 0.68428588
-0.17459677 0.078554466 0.68641675
-0.16497181 0.078526869 0.68655008
-0.15429547 0.078405596 0.68250012
-0.14710875 0.078274295 0.68181819
0.016381396 0.074295871 0.68623269
0.025166964 0.075767651 0.6830771
0.035016425 0.076462828 0.68224317
0.045282625 0.075698294 0.68360382
0.054506816 0.07476823 0.68620008
0.061766408 0.072000168 0.68727285
-0.17385276 0.080984913 0.68153852
-0.16598122 0.081546403 0.68421435
-0.15669207 0.081011645 0.68111116
-0.0448195 0.085800312 0.68168008
-0.038971432 0.0844381 0.68200004
0.0085180961 0.088457137 0.68800002
0.016191861 0.08580935 0.68700016
0.025335273 0.085101634 0.68330616
0.034995764 0.085016184 0.68279618
0.044999313 0.084861286 0.68400002
0.054122861 0.085505471 0.68728948
0.061413333 0.088853344 0.68600005
0.088799231 0.087487996 0.68760002
0.094265439 0.08819034 0.68667859
0.10359886 0.088536389 0.68760014
0.016121905 0.090494186 0.68633336
0.023628192 0.091399625 0.68160009
0.03507429 0.090933345 0.68200004
0.048027944 0.090831123 0.6845001
0.054407783 0.090826198 0.68691671
0.060106669 0.090160005 0.68600005
0.088854611 0.090586662 0.68266672
0.096015498 0.091770932 0.68180019
0.10432348 0.092895299 0.68374366
0.11359449 0.093394481 0.68174064
0.12045714 0.091961898 0.68000001
-0.20352477 0.13785049 0.68275005
-0.2012337 0.14442551 0.68261546
-0.19849798 0.14667365 0.68211108
-0.20084661 0.15459704 0.68309098
-0.19697995 0.15552613 0.68191314
-0.20034668 0.16066763 0.68300003
-0.19486862 0.1644038 0.68284458
-0.18882796 0.16762796 0.68133342
-0.19156525 0.17140047 0.68300003
-0.18778287 0.17283702 0.68225002
0.12827322 0.17713355 0.68099999
0.13081905 0.17420952 0.68000001
-0.21264288 0.18908763 0.68700004
-0.2037687 0.18878606 0.68768758
-0.19477905 0.18919124 0.68753344
-0.18691887 0.18953602 0.68720001
-0.17023811 0.18922573 0.6875
-0.1654862 0.18926588 0.68725008
-0.1545649 0.18680432 0.6860556
-0.14439765 0.1861759 0.68517643
-0.13791348 0.18588708 0.68585724
-0.12456381 0.18631695 0.68400007
-0.071420953 0.18870859 0.68800002
-0.052495241 0.18626192 0.68262506
-0.046660163 0.18760554 0.68200004
-0.013599999 0.18780951 0.68000001
-0.0019523811 0.18863809 0.68300003
0.0019519047 0.18863811 0.68300003
0.016293213 0.1879888 0.68093753
0.024803264 0.18862912 0.68028575
0.058285713 0.18910477 0.68000001
0.11613968 0.18888889 0.68000001
0.12295429 0.18359551 0.68049997
-0.2116936 0.1947639 0.68604547
-0.20521937 0.19489355 0.68553233
-0.19493501 0.19507609 0.68480933
-0.18481775 0.19433975 0.6840983
-0.17495516 0.19436336 0.68405771
-0.16473919 0.19484746 0.68399972
-0.15472236 0.19434352 0.68427396
-0.14511755 0.19453701 0.68393934
-0.1348781 0.19431384 0.68441784
-0.12511648 0.19455619 0.68423778
-0.11506087 0.19520298 0.68360293
-0.104697 0.19515267 0.68368942
-0.094810329 0.19503754 0.68323624
-0.085203826 0.19493119 0.68412876
-0.075031333 0.19537762 0.68506664
-0.065254584 0.19573179 0.6848982
-0.054894682 0.19590946 0.68526924
-0.045011222 0.19500105 0.68495309
-0.035174184 0.19643085 0.68509293
-0.02513089 0.19674385 0.68356597
-0.015378836 0.19690679 0.68433332
-0.0054737329 0.19743434 0.6852904
0.0041408441 0.19730626 0.68562859
0.015721221 0.1965469 0.68655336
0.02456766 0.19556919 0.68528908
0.035351306 0.19801214 0.68587494
0.045552924 0.19881181 0.68604761
0.055218883 0.19721338 0.68604344
0.064402498 0.19813511 0.68676937
0.075458556 0.19733089 0.68755877
0.085356042 0.19496888 0.68425006
0.092222862 0.1909257 0.68033338
0.10928001 0.19384192 0.68300003
0.11398159 0.19141461 0.68053329
0.12121905 0.19919239 0.68800002
-0.2117576 0.2041181 0.68766677
-0.2051408 0.20532349 0.68632019
-0.19500035 0.20480195 0.68507302
-0.18481714 0.2049997 0.68509287
-0.17501889 0.20469323 0.68490231
-0.16504188 0.20483473 0.68494648
-0.15488735 0.20434852 0.68332654
-0.14503869 0.204905 0.68325377
-0.1348692 0.2050565 0.68298334
-0.12507233 0.20459953 0.68254215
-0.11516752 0.20489967 0.68224555
-0.10461891 0.20469068 0.68229657
-0.094715387 0.20478055 0.6820367
-0.085104316 0.20464247 0.68214023
-0.074757166 0.20476879 0.68256217
-0.065019771 0.20481488 0.68271422
-0.055255186 0.20476486 0.68254656
-0.044849619 0.20475131 0.68249965
-0.035146803 0.20468941 0.68201798
-0.025094919 0.20507452 0.68026674
-0.014911415 0.20466931 0.6803385
-0.0051844232 0.20415828 0.68053591
0.0045475601 0.20462233 0.68207777
0.014948959 0.20473358 0.68245292
0.02544672 0.20431884 0.68050015
0.035056494 0.20462266 0.68083864
0.044717159 0.2047573 0.68061972
0.055135556 0.20482333 0.68095893
0.064902969 0.20494331 0.682845
0.074900188 0.20487317 0.68267989
0.085147619 0.20456024 0.68215579
0.09502545 0.20496283 0.68243283
0.10473599 0.20497002 0.68188065
0.11497504 0.20453376 0.68258929
0.12352588 0.20544162 0.68387234
-0.21098667 0.21098667 0.68800002
-0.20383266 0.21414331 0.68794721
-0.1948202 0.21480338 0.68746001
-0.18480571 0.2148969 0.68686461
-0.17489462 0.21506129 0.68685025
-0.16498356 0.21476942 0.68711555
-0.15500978 0.2145296 0.68675029
-0.14460212 0.21511663 0.68526101
-0.13506104 0.21538469 0.68552744
-0.12501374 0.21553695 0.68530774
-0.11512332 0.21497683 0.68447185
-0.10492495 0.21506578 0.68428576
-0.094925344 0.21515308 0.68415713
-0.085199125 0.21493676 0.68425936
-0.074925512 0.21500203 0.68408924
-0.06511452 0.21487831 0.68369401
-0.055331606 0.21482246 0.68351787
-0.044906639 0.21477082 0.68335712
-0.035134144 0.21470959 0.68316323
-0.025516422 0.21499096 0.68173659
-0.014835974 0.21485518 0.68237716
-0.0052009723 0.21455052 0.68265307
0.0047245724 0.21493803 0.68278295
0.014824023 0.21497902 0.68241906
0.025260126 0.21528666 0.6824497
0.034779288 0.2152032 0.68206239
0.044818848 0.21550834 0.68185931
0.055126805 0.21532682 0.68099993
0.065358058 0.2150441 0.68032748
0.075198725 0.21527186 0.680902
0.084891446 0.21531011 0.68151695
0.094973482 0.21512246 0.68164796
0.10463923 0.21548654 0.68164808
0.11478729 0.21556017 0.68094218
0.1241848 0.21478713 0.68283331
-0.20417218 0.22658134 0.68800014
-0.19353497 0.22575347 0.68799984
-0.18457228 0.22451045 0.68658704
-0.17484325 0.22488579 0.68630773
-0.1651746 0.22480129 0.6879999
-0.15528108 0.22473101 0.68795294
-0.14475931 0.22470467 0.68627882
-0.13518149 0.22549494 0.68647385
-0.12496857 0.22507432 0.68700022
-0.11503805 0.2252028 0.68676496
-0.10533205 0.2251422 0.68665546
-0.094822966 0.22495861 0.68664324
-0.084993392 0.22490694 0.68649012
-0.075071491 0.22501311 0.68625897
-0.064776607 0.22541104 0.68625438
-0.054926064 0.2249355 0.6865716
-0.045120273 0.22494814 0.68660742
-0.034906745 0.2250393 0.68643427
-0.024890307 0.2248351 0.68487763
-0.014969526 0.22490624 0.68544847
-0.0051475824 0.22480123 0.68584037
0.0043900972 0.2253463 0.68490028
0.015143614 0.22560407 0.68517268
0.024987711 0.22527112 0.68435866
0.03500779 0.22566397 0.68523252
0.045041114 0.22539331 0.68344814
0.054940499 0.2249503 0.68279618
0.064837806 0.22554353 0.6839807
0.074847504 0.2251927 0.68337482
0.085124388 0.22501692 0.68298191
0.094860345 0.22510499 0.68295991
0.10470268 0.22499682 0.68307
0.11500724 0.22481856 0.68224967
0.12333442 0.22484718 0.68245435
-0.19853714 0.23064382 0.68800002
-0.18231435 0.23490816 0.68730432
-0.17462686 0.23511922 0.68724197
-0.16554791 0.23476253 0.68799984
-0.15476695 0.23435143 0.68787992
-0.14505652 0.23524956 0.68703932
-0.13504294 0.23509714 0.68670201
-0.12503427 0.23501311 0.68735945
-0.11514258 0.23495007 0.68692476
-0.10532208 0.23509243 0.68716145
-0.094910473 0.23498605 0.68728137
-0.085068874 0.23492089 0.68708938
-0.075319655 0.23501517 0.68693566
-0.064682066 0.23541152 0.68687743
-0.054963037 0.23490103 0.68703592
-0.045146752 0.2348938 0.68701589
-0.034677148 0.23488851 0.68700022
-0.024983462 0.23505202 0.68698168
-0.015015268 0.23509721 0.68695104
-0.0053050034 0.23489062 0.68676388
0.0045733335 0.2352 0.68600047
0.015032113 0.23527384 0.68621469
0.024830595 0.2352418 0.68612278
0.03462667 0.2352 0.68600047
0.044966586 0.23528518 0.68435013
0.054653663 0.23500223 0.68403846
0.064787596 0.23528434 0.6857245
0.074910074 0.2352729 0.68544096
0.085559696 0.2352187 0.68571955
0.094914585 0.23497054 0.68326306
0.1048455 0.23508543 0.68376517
0.11517375 0.23463567 0.6847738
0.1245156 0.2354074 0.685435
-0.19001906 0.24571429 0.68800002
-0.18443975 0.2449616 0.68725532
-0.17449257 0.24510653 0.68670988
-0.16490598 0.24539423 0.68710732
-0.1552978 0.24526195 0.68738991
-0.14507401 0.24508657 0.68672246
-0.13502897 0.24461661 0.68493742
-0.12629293 0.24568149 0.68702137
-0.11246721 0.24158913 0.6877144
-0.1050962 0.24163923 0.68785733
-0.094411261 0.24249515 0.68799996
-0.086088218 0.24193408 0.68800014
-0.075099252 0.24219432 0.68789476
-0.062764913 0.24436936 0.68799996
-0.055152576 0.24405253 0.68771791
-0.04519929 0.24433792 0.68781245
-0.034510288 0.24437316 0.68731999
-0.024714686 0.24509835 0.68700022
-0.015530402 0.24459574 0.6871925
-0.0051131779 0.2441702 0.68695366
0.0045015244 0.24421982 0.68674016
0.015054999 0.24481277 0.6873036
0.024959369 0.24496499 0.68637055
0.034652203 0.2451805 0.68650049
0.04500534 0.24522077 0.6843226
0.054830093 0.24520466 0.6850186
0.064570874 0.24521175 0.68617785
0.075324401 0.24532598 0.68627912
0.085402459 0.24509633 0.68514305
0.095092669 0.24505655 0.6846202
0.10508893 0.245426 0.68535739
0.11501089 0.24505165 0.68614322
0.12369223 0.24463207 0.68641698
-0.18215619 0.25104985 0.68800008
-0.17551021 0.25179869 0.68800008
-0.16489759 0.2519263 0.68707156
-0.15526238 0.25091049 0.68787509
-0.1441775 0.25192156 0.6875456
-0.13518801 0.25299215 0.68603045
-0.12627572 0.2511481 0.68525004
-0.060937144 0.25030097 0.68800002
-0.024112763 0.25108728 0.68800002
-0.016872382 0.25112003 0.68800008
-0.0045866668 0.25030097 0.68800002
0.015288889 0.250301 0.68800008
0.025267573 0.25262001 0.68785709
0.034981176 0.25476986 0.68508631
0.044561252 0.25501215 0.68307781
0.055175044 0.2550728 0.68359303
0.064867191 0.25514168 0.68560672
0.075017005 0.255301 0.68427134
0.085136302 0.25512952 0.68299967
0.095009334 0.25508195 0.68326974
0.10443679 0.25515115 0.68578964
0.11478198 0.25396192 0.68716687
0.1232182 0.25487027 0.68759996
0.036556195 0.26130575 0.68550003
0.045487624 0.26223215 0.68424988
0.054495025 0.26171017 0.6839444
0.065159559 0.26164398 0.68523079
0.074395813 0.26165202 0.68409997
0.086714715 0.26333636 0.68363631
0.094262257 0.26434794 0.68162775
0.10198995 0.26206842 0.68327284
0.12416039 0.26115736 0.68760002
0.092297144 0.27134597 0.68612504
-0.075645246 -0.10305271 0.69066679
-0.076228581 -0.099885717 0.69000006
-0.064995408 -0.094235599 0.69063658
-0.057889529 -0.091530897 0.6907143
-0.054877013 -0.084645726 0.69130445
-0.049285717 -0.08214286 0.69000006
-0.037529632 -0.082380533 0.69138891
-0.052467611 -0.075363919 0.69187504
-0.047029521 -0.073665358 0.69062501
-0.037094943 -0.074768104 0.69093758
-0.052098718 -0.065606371 0.69517249
-0.044914182 -0.06537319 0.6915741
-0.035071973 -0.065097868 0.69117904
-0.027265934 -0.0626022 0.69700009
-0.051688254 -0.054999139 0.69579184
-0.045807064 -0.054620873 0.69288659
-0.031144129 -0.057465818 0.69088894
-0.02743971 -0.057837814 0.69369239
-0.051162224 -0.04783937 0.69766665
-0.044487014 -0.045347471 0.69419163
-0.039451431 -0.04339543 0.69040006
-0.04453449 -0.034692612 0.69610429
-0.037802991 -0.034509387 0.69114292
-0.043553997 -0.026497586 0.69692308
-0.036678255 -0.024508992 0.69244462
-0.041200478 -0.017276665 0.69774997
-0.034941327 -0.015243343 0.6935246
-0.028914288 -0.010514286 0.69000006
-0.032849588 -0.0060721184 0.6955173
-0.027142111 -0.0043487367 0.69139129
-0.030946396 0.0020889798 0.69771427
-0.02759208 0.0041440763 0.69640005
-0.026590478 0.010636191 0.69800007
0.096953854 0.028004395 0.69000012
0.10541829 0.027130205 0.69008023
0.11045335 0.027613971 0.69033337
0.095348887 0.034113534 0.69057804
0.10443657 0.033229318 0.69041485
0.11045335 0.031557463 0.69033337
-0.0042936513 0.058129843 0.69358325
-0.0031620516 0.062479269 0.69561535
0.0030867653 0.066533655 0.69237942
-0.19008 0.075900003 0.69300002
-0.18482095 0.07580357 0.69215637
-0.17545849 0.075345539 0.69340008
-0.16854858 0.075963438 0.6924001
-0.023931429 0.079771429 0.69800001
0.0058737104 0.075121373 0.69500011
0.01230577 0.07678432 0.69082361
0.058507144 0.078228578 0.69025004
0.064653397 0.077158928 0.694143
-0.12298096 0.083095238 0.69800001
-0.11345836 0.083972 0.69700003
-0.1054469 0.083891526 0.69435143
-0.094842948 0.083320752 0.6930002
-0.085182734 0.083697498 0.69234383
-0.075389288 0.08313673 0.69444454
-0.068753816 0.084031433 0.69749999
-0.044505529 0.084497146 0.69749999
-0.037891429 0.085089527 0.69800001
-0.024473084 0.084744841 0.69800001
-0.015900146 0.086133458 0.69705003
-0.0046893177 0.086899213 0.69527036
0.004424504 0.084968925 0.69320363
0.012292476 0.082895346 0.69025022
0.058272533 0.083462417 0.69046158
0.064876728 0.084729068 0.69504094
0.07046476 0.085089527 0.69800001
0.097297907 0.086043239 0.69500005
0.10588318 0.087447941 0.69125003
0.11511892 0.087419242 0.69443762
0.12135957 0.088446356 0.69422227
-0.0046234922 0.091123812 0.69333339
0.0045999996 0.091367505 0.69018769
0.010514286 0.090685725 0.69000006
0.10908572 0.090685725 0.69000006
0.11594747 0.091178745 0.69041669
0.12318047 0.09180405 0.69349998
-0.18812762 0.17948572 0.69800001
-0.21221477 0.18652891 0.69362503
-0.205127 0.18597019 0.69355565
-0.19449094 0.18584655 0.69463849
-0.18479796 0.18567841 0.69548452
-0.17583114 0.18669036 0.69367522
-0.16470167 0.18753736 0.69480658
-0.15600392 0.18756285 0.69211113
-0.1452021 0.18788137 0.69050008
-0.13431874 0.187589 0.69265634
-0.12615286 0.18794851 0.69275999
-0.11570347 0.18837775 0.69236845
-0.10586719 0.18844955 0.69318181
-0.094325572 0.18854773 0.69446164
-0.085602663 0.18893108 0.69460011
-0.076892063 0.18936509 0.69200003
-0.067100577 0.18894972 0.69080007
-0.05396381 0.18953143 0.6910001
-0.023233335 0.18984953 0.69700003
-0.18005715 0.19057144 0.69000006
-0.17874287 0.19057144 0.69000006
-0.12222859 0.19057146 0.69000006
-0.11391368 0.19094263 0.69166672
-0.10520092 0.1908287 0.69161904
-0.095659457 0.1911137 0.69247377
-0.085002035 0.19042881 0.69187504
-0.075603276 0.19097975 0.69114292
-0.064184517 0.19162528 0.69183338
-0.057052892 0.19184862 0.69182354
-0.040742859 0.19320001 0.69000006
-0.03416343 0.19304594 0.69340003
-0.025118986 0.19236325 0.69410723
-0.015339847 0.19309123 0.69312918
-0.0052169524 0.19322346 0.6904003
0.0053934776 0.19401433 0.6916365
0.011579321 0.1943215 0.69200009
0.028257146 0.19780003 0.69000006
0.034827974 0.19684274 0.69200021
0.044477072 0.1966332 0.69267869
0.055017587 0.19611117 0.69153857
0.065617055 0.19760257 0.69095236
0.07425715 0.19582857 0.69000006
0.085730091 0.19785176 0.69287509
0.095885381 0.19810598 0.69539142
0.10430732 0.19838229 0.69364995
0.11558774 0.19868837 0.69438893
-0.2141943 0.20726132 0.69027281
0.089500956 0.20006096 0.69100004
0.095597975 0.20071335 0.69228578
0.10535239 0.20082219 0.69135725
0.11451318 0.20173226 0.69382364
0.1214781 0.20047048 0.69700003
-0.21399835 0.21543631 0.69053507
-0.20735382 0.21765035 0.69008338
-0.19977143 0.21948573 0.69000006
-0.22113772 0.22685103 0.69769996
-0.214224 0.22498485 0.69209534
-0.20497771 0.22406891 0.69005036
-0.19695511 0.22336599 0.6900003
-0.16538097 0.22649527 0.69000006
-0.22147484 0.23436548 0.69723547
-0.21485946 0.23517688 0.694341
-0.20492667 0.23453397 0.69158506
-0.19456096 0.23542979 0.69158727
-0.18712044 0.23500939 0.69055563
-0.16203268 0.23863676 0.69000012
-0.1564 0.23846987 0.69000006
-0.1485143 0.23788574 0.69000006
-0.21367832 0.24439843 0.69548649
-0.20512562 0.24482958 0.69477546
-0.19521946 0.24432772 0.69202024
-0.18843493 0.24108128 0.69099998
-0.16165715 0.24051432 0.69000006
-0.15815239 0.24095242 0.69000006
-0.12188981 0.2448314 0.69006681
-0.11581631 0.24602783 0.69134164
-0.10512167 0.24705443 0.69180655
-0.095569767 0.24701878 0.6906088
-0.084517173 0.2464997 0.69069713
-0.075045943 0.24664637 0.69024014
-0.066045664 0.24603704 0.69002813
-0.054674294 0.24932002 0.69000006
-0.045342859 0.24971429 0.69000006
-0.036361907 0.24949525 0.69000006
-0.011828572 0.24905716 0.69000006
-0.0061333338 0.24949525 0.69000006
0.0052571436 0.24905714 0.69000006
0.12848637 0.2482013 0.69066668
0.13065501 0.24486072 0.69112504
-0.2113943 0.25128001 0.69800007
-0.20371471 0.25203174 0.69771427
-0.19481052 0.2535058 0.69658822
-0.18483831 0.255835 0.69296438
-0.17741393 0.25589925 0.69250005
-0.16153714 0.25659811 0.69800001
-0.15389422 0.2563923 0.69595462
-0.14579934 0.25657445 0.69407141
-0.13501786 0.25855017 0.69190913
-0.12396816 0.25663349 0.69591999
-0.1150872 0.2552231 0.69589144
-0.10499645 0.25486088 0.69542229
-0.095029995 0.25484243 0.69468194
-0.085099593 0.2544668 0.69430447
-0.075001657 0.25472212 0.69333351
-0.065423004 0.25467402 0.69294602
-0.054956738 0.25490087 0.69285733
-0.04474777 0.25551292 0.69418424
-0.034954838 0.25523272 0.69247931
-0.025395092 0.25575471 0.69178802
-0.014621953 0.25544676 0.69118434
-0.0052990951 0.25491512 0.69117516
0.0046075392 0.25470042 0.69104189
0.0151171 0.25535926 0.69154787
0.024574077 0.25723231 0.6911667
0.030228572 0.25825715 0.69000006
0.11551113 0.25876823 0.69000006
0.12602691 0.25429267 0.69047076
0.13086857 0.25182286 0.69400001
-0.18391107 0.26210052 0.69650006
-0.17922857 0.26154095 0.69700003
-0.14211074 0.26420879 0.69726682
-0.13582131 0.26498181 0.69632441
-0.12696952 0.26058665 0.69800001
-0.11507768 0.26088208 0.69800001
-0.10396877 0.26165029 0.69800007
-0.0952029 0.26241484 0.69786203
-0.085323691 0.26128486 0.69773346
-0.074303627 0.26241857 0.69772738
-0.06514743 0.26292571 0.69757587
-0.054889891 0.26346582 0.69746357
-0.045912381 0.26225057 0.69765013
-0.034726985 0.26282302 0.69738108
-0.025406454 0.26436514 0.69635904
-0.015384765 0.26431739 0.69664294
-0.0051371432 0.26519358 0.69680446
0.0045468081 0.26526141 0.69668525
0.015343416 0.26531106 0.69661838
0.025038378 0.26522872 0.69576591
0.034003131 0.26682115 0.69517857
0.045147486 0.26956195 0.6971429
0.056105908 0.26962742 0.69800001
0.065287381 0.26761869 0.69425005
0.07515087 0.26827013 0.69540006
0.083127141 0.26896071 0.69687504
0.1078669 0.2656008 0.69411778
0.11488382 0.26508367 0.69397777
0.12201621 0.26537734 0.69365007
-0.017948572 0.27122286 0.69800001
0.0078109521 0.27371573 0.69800001
0.014447493 0.27272967 0.69800007
0.026780408 0.27198258 0.69800007
0.032573335 0.27255243 0.69800007
0.044839367 0.2746959 0.69764107
0.050521903 0.27122286 0.69800001
0.065917186 0.27324104 0.69772011
0.075631261 0.27417383 0.69743198
0.08536607 0.27461323 0.69675517
0.094336726 0.27621737 0.6953333
0.10551214 0.27316859 0.69787502
0.11495292 0.27372205 0.69758981
0.12321461 0.2722767 0.69706678
0.044588227 0.28154421 0.69781816
0.091072381 0.28052953 0.69800001
0.099049523 0.30911428 0.69800001
-0.054666672 -0.064666674 0.70000005
-0.051562257 -0.042462166 0.70063645
-0.049111113 -0.042222224 0.70000005
-0.051741913 -0.035895374 0.70164293
-0.048666671 -0.037333339 0.70000005
-0.045703709 -0.022962963 0.69999993
-0.042743161 -0.014949072 0.70010525
-0.040718287 -0.0065592378 0.7032001
-0.037107624 -0.0042095245 0.70200008
-0.034099754 0.0036586248 0.70144463
-0.029333336 0.0093333339 0.70000005
-0.031186033 0.011137143 0.70166671
-0.028333336 0.011666667 0.70000005
-0.0026759524 0.067160241 0.70337498
-0.18279873 0.073165715 0.70483339
-0.1753249 0.074015379 0.70378578
-0.16396441 0.07530576 0.7042383
-0.15542601 0.076430492 0.70515621
-0.14418727 0.078024469 0.70436847
-0.13494058 0.077871524 0.70490021
-0.12484226 0.077487051 0.70366669
-0.11484119 0.078975707 0.70725
-0.1053502 0.078831211 0.70700008
-0.093907945 0.079528257 0.70766664
-0.08464884 0.079014033 0.70745462
-0.070767626 0.078779049 0.70100003
-0.066606358 0.079397142 0.70649999
-0.055189937 0.079421237 0.70671439
-0.049897145 0.079565711 0.708
-0.013485714 0.079565719 0.70800006
-0.0036042866 0.076013602 0.70589292
0.00088901597 0.075150236 0.70120007
0.068000004 0.074666671 0.70000005
0.071373336 0.07743334 0.70699996
-0.14341368 0.081165493 0.70058829
-0.13466914 0.081114292 0.70082355
-0.1250166 0.081547782 0.70041656
-0.11701393 0.081967741 0.70262504
-0.10433232 0.080847479 0.70292312
-0.09449552 0.081052244 0.70585716
-0.085070081 0.081329264 0.70492864
-0.074059345 0.0809348 0.70100003
-0.065108076 0.082093991 0.70434624
-0.054464255 0.082556576 0.70250005
-0.046153795 0.082405373 0.70373929
-0.0319327 0.08618667 0.7033335
-0.028609527 0.083687626 0.70190001
-0.01272213 0.082641579 0.70517659
-0.0061137532 0.082315348 0.70340002
0.00044444448 0.080444455 0.70000005
0.075707227 0.085438356 0.70485723
0.083460517 0.087323181 0.7029261
0.099723816 0.084225714 0.70749998
0.10552698 0.085336275 0.70666671
0.11206572 0.084801272 0.70391673
0.12584013 0.087401152 0.70233345
-0.032365717 0.090354286 0.70800006
0.077333339 0.090666674 0.70000005
0.083394289 0.090731427 0.70050001
0.12684762 0.091463819 0.70100003
-0.21296218 0.18473142 0.70571434
-0.20433533 0.18322802 0.70345849
-0.19559982 0.18170488 0.70052946
-0.18639953 0.18106428 0.70025003
-0.16800001 0.186 0.70000005
-0.13133334 0.18533334 0.70000005
-0.12852761 0.18625382 0.70475
-0.036162995 0.19330424 0.70685726
0.12458334 0.19922692 0.70612508
0.125668 0.20159751 0.70415395
-0.22325929 0.22562964 0.70000005
-0.21381971 0.2566779 0.7022692
-0.20512734 0.25675499 0.70055187
-0.19586463 0.25777209 0.70046663
-0.17412287 0.25885141 0.70050001
-0.16533335 0.25866666 0.70000011
-0.15666668 0.25866666 0.70000005
-0.21428864 0.26468629 0.70411146
-0.20509577 0.26475078 0.70376188
-0.19493572 0.26508397 0.70308
-0.18468243 0.26742953 0.70065391
-0.17499274 0.26529324 0.70323193
-0.16476406 0.26497969 0.70279992
-0.15531154 0.26515782 0.70211124
-0.14717375 0.26531312 0.70082158
-0.13176438 0.26630083 0.70038468
-0.12499677 0.26572791 0.70031846
-0.11523497 0.26601279 0.70010906
-0.10522447 0.26678282 0.70021075
-0.094360001 0.26776937 0.70030427
-0.084528871 0.26689813 0.70060545
-0.075136155 0.2676737 0.70040005
-0.065250002 0.26841673 0.69999993
-0.055487182 0.26882058 0.69999999
-0.044684362 0.26744303 0.70028579
-0.034683175 0.26774719 0.70033336
-0.022000002 0.26933336 0.70000005
-0.014666669 0.26933336 0.70000011
0.058000006 0.26933336 0.70000005
-0.21239467 0.2719886 0.70620006
-0.20457767 0.27411872 0.70713943
-0.19509046 0.27406773 0.7060833
-0.18413521 0.27500388 0.70410007
-0.17512548 0.27498153 0.70624989
-0.16493231 0.27524465 0.70642543
-0.15465687 0.27472061 0.70546514
-0.14525104 0.27546072 0.70455813
-0.1345882 0.27579933 0.70408893
-0.12491173 0.27524883 0.70411366
-0.11506078 0.27565685 0.70390904
-0.10506876 0.27546802 0.70404363
-0.095043704 0.27553812 0.70372105
-0.085080236 0.27523452 0.70376593
-0.075060815 0.27544802 0.70369059
-0.065020755 0.27514976 0.70274472
-0.05500342 0.2749922 0.70272094
-0.044731762 0.27521798 0.70357978
-0.035000436 0.27522033 0.70365924
-0.02480817 0.27548137 0.7022543
-0.014401059 0.27551678 0.70139998
-0.005518984 0.27544537 0.70106673
0.0041960087 0.27567631 0.701024
0.014827391 0.27642483 0.70106894
0.024439808 0.27632266 0.70114994
0.035524826 0.27659667 0.70116675
0.04354436 0.2763316 0.7003572
0.054906502 0.27545822 0.70117795
0.063126631 0.27687964 0.70060873
0.073142871 0.27828574 0.70000011
0.097909056 0.27903 0.70175004
0.10437375 0.27753654 0.70015782
0.11390477 0.27828574 0.70000011
0.12257785 0.27776939 0.7001819
-0.18491848 0.2803444 0.70760006
-0.17406945 0.2814365 0.70800012
-0.16711913 0.2814365 0.70800012
-0.15424041 0.28062648 0.70755559
-0.14504419 0.28241119 0.70669997
-0.13598953 0.28140345 0.70620006
-0.12492765 0.28304011 0.70669246
-0.11532747 0.28290853 0.70700002
-0.10484122 0.28326637 0.70666665
-0.095029913 0.28320667 0.70666665
-0.084337965 0.28330758 0.70682156
-0.075073555 0.28407291 0.70654052
-0.064793341 0.28334695 0.70608807
-0.054887671 0.28457725 0.70672506
-0.045487579 0.28499025 0.70704091
-0.034832135 0.28500658 0.70621258
-0.024770731 0.28524035 0.70493883
-0.014785643 0.28540426 0.70574379
-0.0052775838 0.28548685 0.70551234
0.004702739 0.28551388 0.70537513
0.014773699 0.2854194 0.70514297
0.024844958 0.2853778 0.70504159
0.034860045 0.28494689 0.70397621
0.044825714 0.28552529 0.70145005
0.054937419 0.28540915 0.7034694
0.064946339 0.28523439 0.7030353
0.074749865 0.28503802 0.70212746
0.084935628 0.2851117 0.70130199
0.095081918 0.28532636 0.70234895
0.10504424 0.28503269 0.70253545
0.11488664 0.2846733 0.70185411
0.12252352 0.28426743 0.70224005
-0.25083429 0.29803428 0.70800006
-0.24489215 0.29740524 0.70761544
-0.23460953 0.29718012 0.70746672
-0.22502263 0.29649159 0.70715159
-0.21486051 0.29745045 0.70708841
-0.20529653 0.29782641 0.70688909
-0.19456424 0.29721242 0.70689476
-0.18520029 0.29718128 0.70631582
-0.17488937 0.2970309 0.70587188
-0.16507831 0.29735696 0.70670718
-0.15447325 0.29770118 0.70638704
-0.14497212 0.29737931 0.7053659
-0.13462956 0.29736596 0.70560008
-0.12506229 0.29748291 0.70600003
-0.11482057 0.29799104 0.70505273
-0.10515788 0.29762468 0.70647073
-0.095783435 0.29863948 0.70652175
-0.084851339 0.29899901 0.70709538
-0.07493972 0.29888198 0.70695645
-0.065600567 0.29900864 0.7071178
-0.051919997 0.29938284 0.708
-0.044422857 0.29951158 0.70671439
-0.034991704 0.29945117 0.7065714
-0.026015572 0.29624063 0.70788246
-0.018879998 0.29938284 0.708
-0.0040457142 0.29129142 0.70800006
0.0062612244 0.29341066 0.70800012
0.012522449 0.29186937 0.70800006
0.025622858 0.29129145 0.70800006
0.03561075 0.29192317 0.70742869
0.041627623 0.29207304 0.70500004
0.055865716 0.29321787 0.70675004
0.064367622 0.29264739 0.70566684
0.07667008 0.29293174 0.70614284
0.085210718 0.29478446 0.70548779
0.09483771 0.29374856 0.70620841
0.1057275 0.29371223 0.70560014
0.11487781 0.29384556 0.70665389
0.12327238 0.29181236 0.70729989
-0.26462001 0.30973333 0.70700002
-0.25083429 0.3014057 0.708
-0.24428663 0.3034654 0.70752949
-0.23493496 0.30437481 0.7073521
-0.2248915 0.3043682 0.70744693
-0.21515423 0.30531412 0.7064808
-0.20505695 0.30523887 0.70641524
-0.19495298 0.30520096 0.7058571
-0.18522941 0.30494583 0.70508003
-0.17506096 0.30459267 0.70461798
-0.16459891 0.30501589 0.70542884
-0.15435538 0.30467808 0.70465314
-0.14451243 0.30487269 0.70331901
-0.1348967 0.30456695 0.70396549
-0.12463583 0.30498156 0.704
-0.1152087 0.30543697 0.70330584
-0.10517624 0.30480868 0.70340586
-0.09506043 0.30459207 0.70291054
-0.085086592 0.30483475 0.70346838
-0.075054325 0.30491078 0.70364273
-0.064929783 0.30471486 0.70382071
-0.054992259 0.30446598 0.70417434
-0.044994257 0.30497879 0.70401525
-0.034838371 0.30482453 0.70344621
-0.024806529 0.30439532 0.70401365
-0.014687504 0.30465758 0.70392406
-0.0054149805 0.3051334 0.70488143
0.0047276462 0.30492634 0.70507038
0.014638381 0.30524203 0.7040664
0.024869857 0.30618548 0.70372272
0.034956113 0.30516151 0.70383811
0.04474711 0.30553836 0.70515728
0.055029191 0.30601442 0.70465297
0.064885929 0.30612606 0.70419639
0.075164355 0.30674583 0.705154
0.085038014 0.30663243 0.70526397
