# .PCD v0.7 - Point Cloud Data file format
VERSION 0.7
FIELDS x y z
SIZE 4 4 4
TYPE F F F
COUNT 1 1 1
WIDTH 582
HEIGHT 1
VIEWPOINT 0 0 0 1 0 0 0
POINTS 582
DATA ascii
-0.12314098 -0.1011765 0.77733344
-0.11632571 -0.1010842 0.77700001
-0.10966095 -0.10076953 0.77800006
-0.12413303 -0.094737299 0.77714288
-0.11525388 -0.094734363 0.77637547
-0.10705002 -0.095637679 0.77777773
-0.12052827 -0.088420324 0.77800006
-0.11546509 -0.087802872 0.778
-0.14342423 -0.10258301 0.78785723
-0.13507754 -0.10381611 0.78466672
-0.12574589 -0.10394276 0.78152943
-0.11485728 -0.10469943 0.78446674
-0.10537432 -0.10372671 0.78329629
-0.095666379 -0.10299 0.78478944
-0.084973194 -0.1027872 0.78707993
-0.078285202 -0.10274078 0.78900009
-0.15028572 -0.093928576 0.78900003
-0.14455396 -0.0948769 0.78660005
-0.13469791 -0.095253482 0.78138119
-0.12907143 -0.094528571 0.78000009
-0.10323118 -0.094109885 0.7803182
-0.095324479 -0.095325626 0.78197968
-0.085293934 -0.094840281 0.78595847
-0.078558445 -0.096865982 0.78900009
-0.14362226 -0.085393123 0.78796542
-0.13501045 -0.085029408 0.78319079
-0.12515396 -0.08449062 0.7805869
-0.11433759 -0.083262458 0.7801767
-0.10526087 -0.085024424 0.78128904
-0.095606528 -0.085150845 0.78430623
-0.08625073 -0.085373245 0.78836566
-0.14334625 -0.07526131 0.78848135
-0.13519998 -0.074695244 0.78428608
-0.12510331 -0.075025372 0.7812326
-0.11447261 -0.075075813 0.78050005
-0.10474802 -0.074869774 0.78121072
-0.095600985 -0.074692324 0.78426528
-0.086358093 -0.074981593 0.78768295
-0.14229122 -0.065093674 0.78829408
-0.13519894 -0.064982332 0.78427804
-0.1249887 -0.065422744 0.78175014
-0.11454666 -0.065455228 0.78099978
-0.10516476 -0.065318286 0.78205043
-0.095655136 -0.065019526 0.78471446
-0.085727632 -0.064638101 0.78836364
-0.14202002 -0.054854289 0.78900003
-0.13543878 -0.055371348 0.7856667
-0.12523568 -0.055162009 0.78271466
-0.11455909 -0.055047434 0.78108144
-0.10495178 -0.055083178 0.78157163
-0.095615081 -0.055280488 0.78438807
-0.08646971 -0.055404685 0.78786486
-0.14202003 -0.045085717 0.78899997
-0.13556331 -0.044933971 0.78638107
-0.12525463 -0.044733062 0.78283715
-0.11463132 -0.044658825 0.78157121
-0.10503534 -0.044694338 0.78219068
-0.095376998 -0.044872172 0.78526938
-0.087463014 -0.045413177 0.78843993
-0.14164428 -0.037947144 0.78900003
-0.13506685 -0.034790095 0.78747809
-0.12466022 -0.035082109 0.78377807
-0.11484671 -0.035050645 0.78304809
-0.10478952 -0.034953043 0.78424996
-0.094914481 -0.035051037 0.7847501
-0.088601351 -0.035422858 0.78841174
-0.13365211 -0.025682213 0.78867722
-0.12510471 -0.025465762 0.7865715
-0.11508729 -0.02540528 0.78467363
-0.10484376 -0.025460411 0.78634697
-0.095664717 -0.026032433 0.78775674
-0.13209324 -0.015424063 0.78899986
-0.12490905 -0.01486553 0.7888723
-0.11510827 -0.015183424 0.78831822
-0.10571132 -0.01544576 0.78890681
-0.097836003 -0.017733714 0.78900003
-0.13150001 -0.0090171434 0.78900003
-0.12383541 -0.0064923414 0.7889998
-0.11442208 -0.0068311682 0.78899986
-0.10732906 -0.0077647618 0.78900003
-0.1233081 -0.11154572 0.79675001
-0.11495962 -0.11208286 0.79570019
-0.10672572 -0.11102794 0.79666674
-0.16112001 -0.10032 0.79800004
-0.15468574 -0.10356098 0.79516685
-0.14681672 -0.10563577 0.79099995
-0.13354395 -0.10865688 0.79542857
-0.12390428 -0.10841238 0.79325008
-0.11526368 -0.10816708 0.79028577
-0.10509238 -0.10849716 0.79250002
-0.092857696 -0.10664001 0.79171437
-0.085285939 -0.10741291 0.79177785
-0.074255243 -0.10435358 0.79561919
-0.069268577 -0.10227429 0.79800004
-0.16112001 -0.095000014 0.79800004
-0.15488149 -0.094966434 0.79305273
-0.14897142 -0.090285718 0.79000002
-0.074594907 -0.094353579 0.79275697
-0.068906672 -0.09576001 0.79800004
-0.16112001 -0.089680001 0.79800004
-0.1551636 -0.084840871 0.79470009
-0.14846985 -0.08426667 0.79000002
-0.081257142 -0.083514288 0.79000002
-0.075350568 -0.084918924 0.79334813
-0.069463991 -0.084208004 0.79799998
-0.15489142 -0.075278915 0.79497153
-0.14806856 -0.07493715 0.79000008
-0.081445239 -0.075426191 0.79000002
-0.075812072 -0.075213484 0.79400003
-0.069311999 -0.075848006 0.79799998
-0.15502311 -0.064920753 0.79548734
-0.14706041 -0.064375162 0.79040015
-0.08125715 -0.066711113 0.79000008
-0.07554698 -0.064980373 0.79334718
-0.069286667 -0.065233342 0.79800004
-0.15464169 -0.055205714 0.79543757
-0.14680858 -0.054958578 0.7905001
-0.081902042 -0.0530966 0.79000008
-0.075430319 -0.054750402 0.79417396
-0.069218464 -0.055070769 0.7980001
-0.15330961 -0.045474291 0.79581833
-0.14688857 -0.045195505 0.7909286
-0.082944401 -0.044733968 0.79038095
-0.075910948 -0.045024343 0.79502237
-0.069919996 -0.048640002 0.79800004
-0.15287015 -0.035427008 0.79647076
-0.14585164 -0.034318596 0.79152662
-0.13994285 -0.030095238 0.79000002
-0.083221048 -0.034579463 0.79122239
-0.075831763 -0.034883924 0.79627031
-0.15200084 -0.025557887 0.79711127
-0.14491229 -0.024902223 0.79246676
-0.13855386 -0.02349744 0.79000008
-0.091380097 -0.02339221 0.79000008
-0.084724292 -0.024744574 0.79220003
-0.075843811 -0.02502902 0.79641193
-0.15086059 -0.01610324 0.79759997
-0.14455014 -0.015133881 0.79461914
-0.13668688 -0.014721655 0.7900871
-0.10157143 -0.012038096 0.79000008
-0.094066508 -0.014364347 0.79066694
-0.084716901 -0.015124897 0.79424518
-0.076211989 -0.015672626 0.7971614
-0.15048002 -0.0091200005 0.79800004
-0.1440908 -0.0057522506 0.79627597
-0.13517928 -0.0050547896 0.79188257
-0.12622298 -0.0034521006 0.79000002
-0.11597415 -0.0027945579 0.79000008
-0.10448063 -0.0042634918 0.79000032
-0.094993755 -0.0052761007 0.79166675
-0.085404418 -0.0055887727 0.796579
-0.078660004 -0.0079800002 0.79800004
-0.14216574 0.0024308572 0.7974
-0.13526832 0.0047175772 0.7948637
-0.12501927 0.0043717138 0.79200017
-0.11496431 0.004727873 0.79137802
-0.10501884 0.0045358217 0.79253072
-0.095161431 0.004352713 0.7955218
-0.087307252 0.0036827845 0.79769248
-0.13340437 0.01379121 0.79761559
-0.12497351 0.015352811 0.79681826
-0.11502435 0.015002717 0.79591489
-0.1047831 0.015080317 0.79654169
-0.095491506 0.013725453 0.79751736
-0.089173339 0.011146667 0.79800004
-0.12185334 0.021786667 0.79800004
-0.11476 0.02204 0.79800004
-0.10944 0.022040002 0.79800004
-0.12466 -0.12158477 0.80800009
-0.11355938 -0.12123366 0.8056668
-0.10529429 -0.12143429 0.80700004
-0.14249787 -0.11181263 0.80550009
-0.13452964 -0.11531705 0.80333328
-0.12529111 -0.11623707 0.80217862
-0.11478205 -0.11784499 0.80347627
-0.10480797 -0.115991 0.80345446
-0.095239453 -0.1149414 0.80425709
-0.086946517 -0.11294523 0.80675006
-0.07618095 -0.11158191 0.80800009
-0.17123771 -0.10268115 0.8070001
-0.1654253 -0.10259741 0.80307156
-0.15949208 -0.10514285 0.80000007
-0.13901334 -0.10998858 0.80200005
-0.10057142 -0.10895239 0.80000001
-0.095885731 -0.10961416 0.80085719
-0.087074295 -0.10998858 0.80200005
-0.070857137 -0.10666667 0.80000001
-0.064147502 -0.10396571 0.80386662
-0.059948575 -0.10606286 0.80700004
-0.17186679 -0.095691547 0.80787504
-0.16600877 -0.094856881 0.80325001
-0.064019896 -0.094914548 0.80408329
-0.17220144 -0.086164922 0.80900002
-0.16569336 -0.084731773 0.80471861
-0.16 -0.086857148 0.80000001
-0.064158998 -0.08530318 0.80488086
-0.16425906 -0.075042695 0.80404174
-0.16 -0.071619049 0.80000007
-0.064355239 -0.074876487 0.80352628
-0.17062286 -0.061485719 0.80700004
-0.16491003 -0.064981714 0.80460006
-0.16 -0.067809522 0.80000001
-0.064299501 -0.06488885 0.80382359
-0.059948575 -0.066865712 0.80700004
-0.17090476 -0.057479367 0.8083334
-0.1649022 -0.054965056 0.80437499
-0.15924826 -0.053418413 0.80133337
-0.064342752 -0.055115115 0.80437827
-0.16456228 -0.045276418 0.80497056
-0.15810438 -0.044410288 0.80120003
-0.070095234 -0.044190478 0.80000001
-0.065140314 -0.045219999 0.8047778
-0.16357642 -0.035401713 0.80568969
-0.15738244 -0.0345781 0.80088902
-0.070865929 -0.034728207 0.80076933
-0.06525337 -0.035153683 0.80500001
-0.1633736 -0.025423205 0.80672735
-0.15711173 -0.024685504 0.80166686
-0.070845716 -0.02580343 0.8016001
-0.065138735 -0.025169834 0.80551356
-0.16235223 -0.015972603 0.80761546
-0.15633398 -0.01501018 0.8031562
-0.071612276 -0.01440836 0.80088902
-0.066560641 -0.015513078 0.80646664
-0.16154319 -0.0053933333 0.80900002
-0.15540673 -0.0053577027 0.80379403
-0.14878695 -0.0034846261 0.80057156
-0.081142858 -0.0026666666 0.80000001
-0.07444793 -0.0050658151 0.80244726
-0.067349158 -0.0056897141 0.80730009
-0.16025905 0.00077047618 0.80900002
-0.1548194 0.0043737958 0.80569696
-0.14673422 0.0052498812 0.80165619
-0.082922414 0.0055742441 0.80104357
-0.075408824 0.0043379301 0.80515224
-0.06877207 0.0017971429 0.8083334
-0.1522727 0.012819683 0.80750012
-0.14448988 0.014880504 0.80426306
-0.13662559 0.017531309 0.80031258
-0.10057142 0.019809525 0.80000001
-0.093338802 0.018497143 0.80087507
-0.084867366 0.015428489 0.80252278
-0.077488005 0.013377334 0.80720007
-0.14312065 0.023700956 0.80793345
-0.13471189 0.025261609 0.80365783
-0.1251691 0.025627382 0.80168748
-0.11509524 0.026678732 0.80033338
-0.10510182 0.025343573 0.80144989
-0.094812386 0.025234975 0.80285716
-0.085431419 0.024528395 0.80637497
-0.13303699 0.032012388 0.80666679
-0.12445999 0.034264009 0.80639404
-0.11476382 0.034349997 0.80495006
-0.10489951 0.034572553 0.80510813
-0.095973782 0.033038605 0.80669242
-0.088787936 0.031307302 0.8083334
-0.11425062 0.040284898 0.80900007
-0.10760985 0.040578417 0.80900002
-0.10090476 -0.1226381 0.81500006
-0.09833429 -0.12156285 0.81300002
-0.080723815 -0.12108572 0.81500006
-0.079560012 -0.12012 0.81900007
-0.14397058 -0.11763341 0.81354553
-0.083459564 -0.11610878 0.81315386
-0.077157333 -0.11604818 0.81340009
-0.055395212 -0.10372918 0.81551856
-0.049920004 -0.10764001 0.81900007
-0.17595461 -0.09480381 0.81150001
-0.060631908 -0.093844295 0.81100005
-0.055525415 -0.095253125 0.8165676
-0.17327079 -0.084189527 0.81100005
-0.060245715 -0.083417147 0.81100005
-0.056847874 -0.085283563 0.81534791
-0.17335865 -0.074453704 0.81433344
-0.16899697 -0.075693332 0.81100005
-0.060245715 -0.073376194 0.81100005
-0.056708973 -0.07456103 0.8148334
-0.17179747 -0.067584977 0.81255561
-0.16992383 -0.064880006 0.81100005
-0.060245715 -0.063335247 0.81100005
-0.056753926 -0.064814076 0.81469232
-0.17286043 -0.055627484 0.81442857
-0.060245719 -0.054066669 0.81100005
-0.056645393 -0.055097945 0.8148334
-0.17225389 -0.045001637 0.81471431
-0.16992383 -0.042480953 0.81100005
-0.060438812 -0.044218816 0.81099999
-0.056987055 -0.045431543 0.81571996
-0.17203405 -0.035401147 0.81513345
-0.16854514 -0.034017526 0.8118
-0.060245719 -0.034757145 0.81100005
-0.056376826 -0.034216195 0.8165834
-0.17097621 -0.025731811 0.81380004
-0.1678551 -0.023878096 0.81118178
-0.060438812 -0.024136906 0.81099999
-0.05731513 -0.0258145 0.81577784
-0.17004001 -0.011700001 0.81900007
-0.16679318 -0.014666107 0.81300008
-0.06166286 -0.014302382 0.81187493
-0.05834318 -0.014778731 0.81683344
-0.16570957 -0.0052200505 0.81384206
-0.062543392 -0.0051420783 0.81354553
-0.059280004 -0.0046800002 0.81900007
-0.16393921 0.0040084133 0.81450009
-0.15911049 0.0084961914 0.81100005
-0.071573973 0.0087536518 0.81100005
-0.064854011 0.0047735721 0.81465018
-0.059280004 0 0.81900007
-0.16184382 0.013231429 0.81700003
-0.15656058 0.015474783 0.81239146
-0.14984192 0.018537143 0.81100005
-0.073315598 0.015818786 0.81190926
-0.067626573 0.013823049 0.81530011
-0.15435165 0.02474913 0.81488246
-0.1468143 0.025935154 0.81172729
-0.081804335 0.027409699 0.81172729
-0.075224087 0.024353379 0.81595242
-0.068640009 0.021060001 0.81900007
-0.15431622 0.031434607 0.81833339
-0.14422339 0.034508891 0.81473345
-0.13568407 0.036098734 0.81216687
-0.1282943 0.037870478 0.81150007
-0.10040953 0.038619049 0.81100005
-0.093630485 0.037330795 0.81206661
-0.084833622 0.035058692 0.81410539
-0.077884197 0.032712765 0.81780005
-0.14080572 0.041046988 0.81833339
-0.13395934 0.042696483 0.81569576
-0.12474814 0.044867069 0.81417078
-0.11527772 0.045883328 0.81266683
-0.10489442 0.045442306 0.81385726
-0.095421679 0.044495009 0.81680942
-0.08663857 0.041956671 0.81833351
-0.12259859 0.054186437 0.81862515
-0.11529449 0.054007277 0.81757158
-0.10667293 0.0518898 0.8184287
-0.12288 0.067320012 0.81900018
-0.1150656 0.066081606 0.81900012
-0.10857601 0.067392007 0.81900007
-0.122655 0.070785001 0.81900012
-0.11476065 0.07141272 0.81860018
-0.10795201 0.070824005 0.81900007
-0.12178405 -0.15277287 0.82900023
-0.11452799 -0.15436287 0.82889783
-0.10807031 -0.15336001 0.82772744
-0.1225425 -0.14413595 0.828125
-0.11500979 -0.14420922 0.82797545
-0.10816478 -0.14400916 0.82900012
-0.12195913 -0.13518448 0.82823092
-0.11488017 -0.13498455 0.82790005
-0.10639389 -0.13539404 0.82778263
-0.12079715 -0.12948191 0.82900006
-0.11424134 -0.127496 0.82840014
-0.10639431 -0.12767142 0.82749999
-0.026024763 -0.12065049 0.82800001
-0.21566468 -0.11252792 0.82900029
-0.20498863 -0.11178953 0.82855564
-0.19896002 -0.11211239 0.82900006
-0.056297146 -0.11103048 0.82100004
-0.030791432 -0.11527049 0.82900012
-0.024421103 -0.1149976 0.82705289
-0.01610304 -0.11490826 0.8268066
-0.0070179901 -0.11176149 0.82900006
-0.21285567 -0.10695418 0.82900023
-0.20490995 -0.10727002 0.8288002
-0.052316543 -0.10648121 0.82100004
-0.048187938 -0.10292858 0.82500005
-0.023588194 -0.10832172 0.82539999
-0.016572382 -0.10838415 0.82866669
-0.0050090756 -0.10685021 0.8278234
-0.19264384 -0.091584779 0.82900006
-0.18948571 -0.090795249 0.82900006
-0.051168259 -0.094758414 0.82233334
-0.19264382 -0.087637149 0.82900012
-0.053172324 -0.083950743 0.82433337
-0.17878953 -0.07088571 0.82700002
-0.053012799 -0.075368039 0.82557148
-0.19106477 -0.060793336 0.82900006
-0.18491481 -0.061832178 0.82900029
-0.17766833 -0.06524013 0.82593334
-0.051821623 -0.064827904 0.82300001
-0.048714288 -0.061285719 0.82500005
-0.19106477 -0.056056194 0.82900006
-0.18539144 -0.054433331 0.8283335
-0.17809789 -0.054555766 0.82622212
-0.051682267 -0.054813337 0.82223803
-0.048099574 -0.054089181 0.82427281
-0.18478796 -0.045101561 0.82848412
-0.17757398 -0.044789094 0.82499993
-0.052225038 -0.044384036 0.82376188
-0.048294183 -0.0456709 0.82677788
-0.18355814 -0.036079455 0.82871449
-0.17777373 -0.034863368 0.82446671
-0.05214794 -0.036244132 0.82133341
-0.048714288 -0.038500004 0.82500005
-0.18040618 -0.025264762 0.82900006
-0.17641635 -0.024896342 0.82499993
-0.053358622 -0.024324736 0.82313788
-0.18001144 -0.018948574 0.82900006
-0.17476259 -0.015472475 0.8247
-0.05363008 -0.015089653 0.82651728
-0.048950478 -0.015000953 0.82900006
-0.17196175 -0.0061452379 0.82383335
-0.056494873 -0.0059932885 0.82614285
-0.1714637 0.0047268034 0.82585722
-0.1681219 0.0073117465 0.82233334
-0.061509844 0.0088615874 0.82100004
-0.057715844 0.0042865807 0.82509094
-0.17116211 0.014198476 0.82820004
-0.16578513 0.015229716 0.82419986
-0.062944449 0.015839208 0.82450002
-0.058516022 0.014057144 0.82827282
-0.16343072 0.021384524 0.82400006
-0.15857029 0.02752305 0.82100004
-0.071363546 0.028189391 0.8221429
-0.064613365 0.024501832 0.82643598
-0.058424767 0.021317143 0.82900006
-0.15394749 0.035673015 0.82433331
-0.14828192 0.038637459 0.82233346
-0.074728936 0.035798818 0.82451731
-0.064188279 0.033238955 0.82900029
-0.15032534 0.044213336 0.82900012
-0.1449607 0.044996466 0.8246429
-0.13618067 0.047440302 0.8217693
-0.091295883 0.047996193 0.82166672
-0.084335327 0.046008643 0.82407695
-0.077724583 0.042905528 0.82606673
-0.14186874 0.053382866 0.82833338
-0.13468702 0.054999959 0.82555008
-0.12640266 0.056318291 0.82130003
-0.11368896 0.058486473 0.82100004
-0.10446472 0.056283422 0.82208556
-0.094883732 0.055224955 0.82475007
-0.08759518 0.054083414 0.82800019
-0.14053525 0.064740956 0.82900012
-0.13496822 0.064912096 0.82588243
-0.12554981 0.063887179 0.82115376
-0.11401594 0.061841555 0.82100004
-0.10429323 0.06457983 0.8215403
-0.094973117 0.06514328 0.82416666
-0.087331004 0.065194204 0.82784629
-0.14053525 0.071846671 0.82900006
-0.13596112 0.071237832 0.82585722
-0.12901428 0.070371434 0.82100004
-0.10212926 0.07106667 0.82128578
-0.096234292 0.07041429 0.8215
-0.10605143 -0.15116286 0.83100003
-0.12504572 -0.14720574 0.83100003
-0.10521346 -0.1446918 0.83100009
-0.12108857 -0.12742001 0.83100003
-0.23084001 -0.11302972 0.83579999
-0.22485086 -0.11373596 0.83334792
-0.044143178 -0.11207938 0.83266675
-0.034212593 -0.11257357 0.83111125
-0.011532245 -0.11328735 0.83100003
-0.0063354927 -0.11544801 0.8318001
-0.22357196 -0.10658073 0.83268011
-0.21604273 -0.10326145 0.83239144
-0.20477682 -0.10280696 0.83111781
-0.19904429 -0.10446858 0.83099997
-0.043901786 -0.10503712 0.83148003
-0.035019509 -0.10560237 0.83295119
-0.028295558 -0.10630286 0.83300012
-0.012811949 -0.10681663 0.83136368
-0.005547619 -0.1039144 0.83212513
0.0022493235 -0.10430197 0.83100015
-0.2137825 -0.095681556 0.83411098
-0.20508741 -0.095021047 0.83142853
-0.19728732 -0.095161371 0.83099997
-0.050915241 -0.092860959 0.83100003
-0.045246955 -0.095257625 0.83352381
-0.038074162 -0.096979946 0.83286685
-0.0019417988 -0.095830902 0.83388895
0.0035440102 -0.094870187 0.83231574
-0.21188636 -0.085883602 0.83500004
-0.20558953 -0.085091643 0.83391428
-0.19595775 -0.084049702 0.83099991
-0.18890885 -0.084273331 0.83142871
-0.050651431 -0.084682867 0.83100003
-0.045305304 -0.085050181 0.83461082
-0.038817145 -0.083837532 0.83520001
-0.0015904763 -0.087476194 0.83500004
0.0039688889 -0.084987849 0.83399993
-0.2051951 -0.075397447 0.83469695
-0.19558746 -0.075224012 0.83144426
-0.18657775 -0.07517422 0.83427775
-0.050732702 -0.075306356 0.83233345
-0.045178201 -0.075006746 0.83519983
-0.03830998 -0.074098252 0.83805257
-0.0015955556 -0.071798734 0.83766669
0.0042288955 -0.075153321 0.83558512
-0.20406702 -0.064761721 0.83719343
-0.19536388 -0.065386333 0.83247066
-0.18617721 -0.067108817 0.83172005
-0.050651431 -0.069645718 0.83100003
-0.046247277 -0.066907108 0.83727276
-0.038753811 -0.068318576 0.83900005
-0.0024652816 -0.063654542 0.8373636
0.0038144214 -0.065700032 0.83488554
-0.20450009 -0.054821938 0.8359713
-0.19559769 -0.054480083 0.83276922
-0.011691429 -0.05154857 0.83700007
-0.0048961272 -0.054647177 0.83806676
0.0013285715 -0.05647476 0.83716667
-0.20427316 -0.045882978 0.83740002
-0.19544713 -0.045283753 0.83420002
-0.18994285 -0.044319998 0.83100003
-0.013230478 -0.045160454 0.83823812
-0.0074264426 -0.047002796 0.83899999
-0.20249265 -0.037594292 0.83827275
-0.19542862 -0.034767717 0.83573681
-0.18759376 -0.033771645 0.83111125
-0.020775238 -0.032760955 0.83900005
-0.015735092 -0.03601861 0.83900005
-0.0095885722 -0.039952382 0.83900005
-0.19380155 -0.025109328 0.83643997
-0.1858705 -0.024365578 0.83300006
-0.19228207 -0.016210796 0.83716667
-0.18534741 -0.015111092 0.83523518
-0.17868239 -0.012281429 0.83200008
-0.05089524 -0.011133334 0.83500004
-0.19017334 -0.0095885722 0.83900005
-0.18394098 -0.0067165918 0.837421
-0.17759731 -0.0053215693 0.8333531
-0.05257583 -0.0056260815 0.83453858
-0.18066047 0.0011976191 0.83749998
-0.17640477 0.002385397 0.83433342
-0.054407749 0.0050877463 0.83526671
-0.055662386 0.014408412 0.83300006
-0.061731428 0.028491428 0.83100003
-0.057774287 0.022160001 0.83100003
-0.15670286 0.039571431 0.83100003
-0.071756199 0.039043814 0.83100003
-0.067129247 0.036382958 0.83220005
-0.15382285 0.044194631 0.83409095
-0.080725715 0.049068574 0.83100003
-0.074293345 0.046222538 0.8343333
-0.068256833 0.044856299 0.83444452
-0.1505124 0.055852067 0.83766669
-0.14666198 0.05532236 0.83433342
-0.082806215 0.055429384 0.8326844
-0.078897342 0.053875428 0.83680004
-0.15116572 0.064668894 0.83833337
-0.14583361 0.065218814 0.83387494
-0.082637139 0.063363828 0.83166677
-0.078399494 0.065014862 0.83660001
-0.14527144 0.072037384 0.83350003
-0.18786858 -0.081891432 0.84300005
-0.04328762 -0.064133808 0.84175003
-0.036316019 -0.066359654 0.8422727
0 -0.051260952 0.84100002
-0.016019046 -0.046455238 0.84100002
-0.0056066662 -0.045120321 0.84100002
-0.2034419 -0.034707937 0.84100002
-0.030725716 -0.031534288 0.84900004
-0.02481672 -0.032934289 0.84344453
-0.017620953 -0.034440953 0.84100002
-0.20023809 -0.028834287 0.84100002
-0.19750287 -0.020874286 0.84300005
-0.033667255 -0.024016265 0.8447693
-0.025096476 -0.025046561 0.84194106
-0.018822381 -0.027632857 0.84100002
-0.19716668 -0.017704763 0.84500003
-0.044447288 -0.014645207 0.84582341
-0.035326838 -0.015858524 0.84431028
-0.027698573 -0.018867144 0.84300005
-0.051301591 -0.0032050794 0.8416667
-0.045085363 -0.0056336066 0.84538096
-0.037921563 -0.0060008666 0.84554565
-0.051932473 0.0056881383 0.84245461
-0.045132674 0.0048362692 0.84630615
-0.038720001 0.0088733342 0.84700006
-0.051780716 0.013099763 0.84625
-0.044501167 0.012742225 0.84788895
-0.038720001 0.011293334 0.84700006
-0.074781157 0.056078304 0.84371436
-0.15218095 0.061673332 0.84100002
-0.073863737 0.064356908 0.84383333
-0.052680954 0.016209524 0.85100001
-0.045155104 0.01597796 0.85100001
-0.068404198 0.059326857 0.85100001
-0.067944929 0.063757464 0.85099995
