# .PCD v0.7 - Point Cloud Data file format
VERSION 0.7
FIELDS x y z
SIZE 4 4 4
TYPE F F F
COUNT 1 1 1
WIDTH 1434
HEIGHT 1
VIEWPOINT 0 0 0 1 0 0 0
POINTS 1434
DATA ascii
0.13413581 0.025241964 0.59201425
0.14583005 0.028578732 0.59094447
0.15446872 0.028852656 0.59071434
0.1649503 0.02634709 0.59000009
0.17732108 0.027367407 0.59044451
0.18508948 0.025686773 0.59226674
0.19502032 0.025217174 0.59592438
0.20129429 0.023950636 0.59875
0.25906429 0.020804763 0.59850001
0.26194477 0.020710096 0.59740001
0.1281376 0.032622412 0.5978235
0.13545597 0.034678001 0.59627026
0.14506242 0.034980636 0.59366655
0.15510899 0.035120957 0.59323072
0.16437112 0.035521969 0.59250015
0.17555946 0.035709135 0.59317148
0.18505004 0.0348497 0.59497017
0.19342707 0.034016248 0.59802777
0.20080763 0.030805714 0.59900004
0.13767989 0.04275649 0.59815788
0.14512983 0.044421066 0.59745324
0.15513031 0.044936597 0.59720832
0.16444615 0.044573322 0.59659326
0.1756604 0.044237118 0.59719664
0.18243919 0.044613339 0.59835714
0.14661239 0.050201908 0.59900004
0.15434095 0.0501181 0.59800005
0.16201524 0.050201908 0.5990001
0.17867316 0.051114667 0.59900004
0.18084095 0.051342856 0.59900004
0.15085715 -0.092571437 0.60000002
0.16370095 -0.095396817 0.60100001
0.14781074 -0.082393825 0.60254169
0.15090805 -0.084448025 0.6008572
0.14747158 -0.075797476 0.60266668
0.15293722 -0.07394959 0.60132074
0.16280982 -0.071508445 0.60030764
0.12810048 -0.060862616 0.60862505
0.13531266 -0.060875788 0.60792863
0.14649625 -0.063522942 0.60508114
0.15498386 -0.065352641 0.60335034
0.16434897 -0.065566897 0.6035257
0.17334948 -0.064615846 0.60704011
0.11804876 -0.051255237 0.60880005
0.1251324 -0.054045208 0.60411549
0.13503914 -0.056739695 0.60256821
0.14475726 -0.058447625 0.60122228
0.15200001 -0.059428573 0.60000002
0.17572096 -0.059527621 0.60100001
0.18598936 -0.057792004 0.60200006
0.19842669 -0.051513653 0.60100007
0.2035346 -0.050453335 0.60200006
0.21076287 -0.050537147 0.60300004
0.099209532 -0.040919371 0.60800004
0.1059894 -0.043789633 0.60544652
0.11408155 -0.046597522 0.60350943
0.12149181 -0.048162665 0.60059994
0.19918858 -0.04922476 0.60100001
0.20489973 -0.048532996 0.60076475
0.21219327 -0.04745876 0.60092306
0.098464973 -0.035290644 0.60500002
0.10282119 -0.03715381 0.60091662
0.099760018 -0.025226671 0.60200012
0.10272251 -0.02245043 0.60205263
0.21455333 -0.025746666 0.60075003
0.10340195 -0.015023082 0.60401964
0.21364191 -0.012844983 0.60053843
0.10575923 -0.0051413262 0.60396087
0.20949143 -0.0011447619 0.60100001
0.21619593 -0.0048215478 0.60193753
0.22473757 -0.0035517979 0.601551
0.23131658 -0.0048057148 0.6006
0.10737167 0.0044427156 0.60534054
0.11092021 0.0060250629 0.60100007
0.20968512 0.004584339 0.60155565
0.21534514 0.0047542001 0.60398495
0.22377825 0.0018797998 0.60381597
0.10805109 0.014283117 0.60642439
0.11325977 0.015753906 0.60163635
0.20787971 0.013349682 0.60074997
0.21347129 0.012583261 0.60289484
0.25521335 0.01923931 0.60381824
0.10930604 0.021243811 0.60833335
0.11520004 0.024737528 0.60453349
0.12142792 0.027068285 0.60085011
0.20570537 0.025679464 0.60221732
0.21189569 0.023167327 0.60815382
0.2487435 0.025653016 0.60755563
0.25396156 0.024455816 0.60536534
0.11721078 0.033739101 0.60697436
0.12389323 0.035551809 0.60203177
0.13242859 0.038428575 0.59999996
0.19765516 0.035864234 0.60194445
0.20296708 0.035099491 0.60533339
0.24940002 0.030160001 0.60900003
0.25279734 0.030660164 0.60741669
0.11948 0.04118 0.60900003
0.1259287 0.044255659 0.60576475
0.13413574 0.045633145 0.60312712
0.1434543 0.048848957 0.6006
0.16788381 0.048947047 0.60040009
0.17250013 0.047877494 0.60025001
0.18660986 0.04513054 0.6020698
0.19458041 0.045013525 0.60505021
0.20173018 0.04057778 0.60866666
0.12877637 0.052806042 0.60816681
0.1350145 0.053580958 0.60782969
0.14477783 0.054961193 0.60503972
0.15483904 0.054793827 0.602606
0.16532727 0.054859091 0.60205567
0.17448881 0.054963909 0.60225785
0.18534747 0.054687534 0.60693026
0.19308279 0.053037666 0.60831833
0.145888 0.061922822 0.60788006
0.15493448 0.062428743 0.60743195
0.16502728 0.062877715 0.60770464
0.17490867 0.063287616 0.60704887
0.18166581 0.06192416 0.60818183
0.14490065 -0.0704 0.61600006
0.11849429 -0.060131427 0.61900002
0.12210971 -0.060583618 0.61880004
0.13705131 -0.06489832 0.61517251
0.14389946 -0.067027234 0.6138379
0.17722066 -0.066435888 0.61021054
0.18107273 -0.06328018 0.61009103
0.10657429 -0.051226664 0.61825001
0.11747724 -0.054764625 0.61465394
0.12293983 -0.057784587 0.61340916
0.097712651 -0.042896509 0.61413342
0.10311534 -0.047003176 0.61433339
0.096096605 -0.038074013 0.61100006
0.098158285 -0.023817837 0.61818194
0.10084382 -0.024318231 0.61614293
0.097879313 -0.014454792 0.61516678
0.10066735 -0.01432109 0.61200011
0.098856777 -0.005751905 0.61640006
0.10157473 -0.0049775825 0.61188465
0.09937387 0.0018427214 0.61585724
0.10249282 0.0049171238 0.61320412
0.10434976 0.014790688 0.6151334
0.20914286 0.019752381 0.61000001
0.2110019 0.018590478 0.61000007
0.10723539 0.024169069 0.61550003
0.11126287 0.028065309 0.61028576
0.21504334 0.028128095 0.61525005
0.24625498 0.027297556 0.61260873
0.10927714 0.032553714 0.61690009
0.11303549 0.03580882 0.61285728
0.20790435 0.037290797 0.61072224
0.23838253 0.035718322 0.61776489
0.24507295 0.034962282 0.61414611
0.25222576 0.034518767 0.61005884
0.11615232 0.044298623 0.61498147
0.12163863 0.046949845 0.61111116
0.19926667 0.049380954 0.61000001
0.20534724 0.045208294 0.61252958
0.21223269 0.044414286 0.61695009
0.23877968 0.042438522 0.61888885
0.24225928 0.042132888 0.61847067
0.11857525 0.051930219 0.61581814
0.12469552 0.055178788 0.61356711
0.13533819 0.058161303 0.61013633
0.18739162 0.058589142 0.61030006
0.19606929 0.056725014 0.61136848
0.20411307 0.054051891 0.61531717
0.21104953 0.051288571 0.61900002
0.12698208 0.063321792 0.61729413
0.13487963 0.064821355 0.61311859
0.14420894 0.066150576 0.61168194
0.15513368 0.067938998 0.61112142
0.16471766 0.068170935 0.61093557
0.17442563 0.068059437 0.61129999
0.18568219 0.065681554 0.61422229
0.19435059 0.064532943 0.6161319
0.20082223 0.062700003 0.6171667
0.12969525 0.070742853 0.61900002
0.13566492 0.071817145 0.61769241
0.14535713 0.073636614 0.61612058
0.15500076 0.074595034 0.6150834
0.16483563 0.074925452 0.61411291
0.17457087 0.074179254 0.61398298
0.18343264 0.073225185 0.61745167
0.15799239 0.080175243 0.61900008
0.16526838 0.080866978 0.61877793
0.17356575 0.08067584 0.61872727
0.21563186 0.14846818 0.61861926
0.22604375 0.14720385 0.61778426
0.23340912 0.14725056 0.61727583
0.21522947 0.15486172 0.61826468
0.22469512 0.15445437 0.61594397
0.23407029 0.15470079 0.61743587
0.21471973 0.16465442 0.61610448
0.22509058 0.16145274 0.6187039
0.23317936 0.1617109 0.61900002
0.21894857 0.17068571 0.61800003
0.11651143 -0.060325719 0.62100005
0.12726381 -0.064223811 0.62150002
0.13202375 -0.065663986 0.6208235
0.099059686 -0.052014291 0.62533343
0.10231773 -0.052114476 0.62320006
0.11432346 -0.055335447 0.62451857
0.09707275 -0.047185037 0.6222381
0.10098324 -0.048718862 0.62080002
0.095457911 -0.021435618 0.62179995
0.095719881 -0.017603811 0.6220715
0.09547624 -0.0049702972 0.62368745
0.098108575 0.0090812705 0.62183344
0.098154821 0.013871695 0.62539995
0.10112011 0.016517984 0.62199998
0.099469207 0.022681907 0.62666672
0.10285201 0.025924234 0.62259185
0.21886986 0.027949208 0.61999995
0.10560834 0.035131898 0.62426323
0.11000572 0.039034288 0.62100005
0.21685717 0.030754289 0.62100005
0.22617207 0.036588576 0.62600005
0.23488645 0.036600389 0.62440914
0.24089333 0.03204 0.62300003
0.10735495 0.04407138 0.62663162
0.11212678 0.046184897 0.62168962
0.22795236 0.045144361 0.62589473
0.23394303 0.04451881 0.62191039
0.24156636 0.045319371 0.62066674
0.10919525 0.051158573 0.62825
0.11484095 0.05513595 0.62464714
0.12058668 0.057929527 0.62066674
0.20767893 0.055673473 0.62
0.22810857 0.050160002 0.62700003
0.117494 0.062618881 0.62695652
0.12351336 0.066017739 0.62260002
0.1960381 0.069170073 0.62
0.20524783 0.067171536 0.62788886
0.12671395 0.073545277 0.62580556
0.13458286 0.076626435 0.62279558
0.14319679 0.078217372 0.62099999
0.15128334 0.078892387 0.62050003
0.17950475 0.07912381 0.62
0.18626659 0.076970056 0.62127995
0.19483526 0.075501658 0.62284881
0.20185906 0.070918098 0.62400007
0.13703819 0.082713954 0.62656522
0.14541423 0.084668621 0.62545323
0.15485905 0.084997579 0.62337863
0.16475563 0.086064026 0.6230787
0.17520221 0.085863076 0.62526095
0.1844546 0.08409524 0.62600005
0.19566368 0.083906904 0.62783867
0.14916286 0.091055237 0.62900001
0.15455429 0.091055237 0.62900007
0.16593619 0.091055237 0.62900001
0.17312478 0.091055237 0.62900001
0.17971428 0.13897905 0.62900001
0.18465827 0.13927165 0.62870008
0.19498433 0.13916984 0.6286155
0.20613064 0.13913268 0.62747061
0.21480522 0.13815802 0.62710005
0.22483771 0.13851169 0.62668002
0.23484275 0.13848703 0.62699997
0.24402592 0.13891937 0.62783331
0.16807567 0.14693782 0.62900007
0.17524792 0.14604723 0.62880957
0.1850203 0.14503214 0.62620729
0.19471589 0.14470781 0.62420273
0.20471917 0.14472774 0.62242877
0.21471171 0.14388077 0.62248552
0.22422013 0.14260748 0.62215936
0.23559915 0.1430742 0.62189388
0.24491525 0.14503297 0.62398493
0.25205943 0.14500715 0.62752002
0.16841799 0.15515333 0.62900007
0.17482366 0.15506712 0.62865263
0.18521801 0.15485325 0.62537181
0.19557609 0.15482852 0.62234718
0.204956 0.1548581 0.6206215
0.21028487 0.15475874 0.62022221
0.23871492 0.15632048 0.62016666
0.24455985 0.15499111 0.6227091
0.25239378 0.15426995 0.62714291
0.16797297 0.16258152 0.62900007
0.17604013 0.16126364 0.62900007
0.18531761 0.16313636 0.62806821
0.19518723 0.16507392 0.62565279
0.20493086 0.16531223 0.62216461
0.21126513 0.16480462 0.62049997
0.22514509 0.16664298 0.62047523
0.23533785 0.16598152 0.6211251
0.24439508 0.16468212 0.62331378
0.2517412 0.16550151 0.62882352
0.19653517 0.17365783 0.62875861
0.20500202 0.17563052 0.62638575
0.21385999 0.17559977 0.62142652
0.22536904 0.17488582 0.62328809
0.2342999 0.1748298 0.623362
0.24395798 0.17505254 0.62758982
0.25130048 0.17042905 0.62900001
0.17300497 0.18390763 0.62900007
0.18578161 0.18467161 0.62709761
0.19548886 0.18418854 0.62703168
0.20506255 0.18421195 0.62385327
0.21408515 0.18432564 0.62362492
0.22505698 0.18361394 0.62755817
0.23486067 0.18317424 0.62666678
0.24184206 0.18237013 0.62830776
0.20728686 0.19088458 0.62400001
0.21132798 0.19064687 0.62400001
0.1081562 -0.06076191 0.63800001
0.11371239 -0.061592851 0.63637507
0.099837147 -0.055933334 0.63150001
0.10588184 -0.056913927 0.6367408
0.11206022 -0.057543065 0.63527775
0.097098298 0.017424572 0.63090008
0.097604565 0.025292229 0.63416123
0.09841162 0.033104766 0.63621056
0.10141879 0.035782952 0.63423812
0.10320543 0.045959026 0.63402563
0.22473077 0.048632931 0.63264298
0.10753722 0.054296322 0.63580006
0.11112436 0.058325171 0.63414299
0.21780476 0.057308417 0.63768208
0.22473754 0.054864578 0.63306415
0.23203878 0.05524515 0.63185012
0.10928571 0.061321907 0.63750005
0.11440518 0.065205708 0.63450009
0.12039524 0.068754762 0.63050008
0.20640002 0.069600008 0.63000005
0.21655102 0.063125789 0.63777798
0.22527072 0.064732239 0.63690794
0.23306471 0.06520725 0.63710815
0.11776632 0.07347133 0.63627583
0.1232693 0.076315314 0.63258988
0.22724953 0.071091428 0.63800001
0.23271811 0.071091428 0.63800001
0.12605955 0.083399676 0.63592499
0.13372824 0.08577361 0.63287252
0.14119048 0.088756956 0.63140005
0.1870781 0.088487625 0.63120002
0.19496827 0.087253891 0.63545841
0.13710439 0.091000013 0.63700002
0.14534786 0.0933377 0.63475609
0.15520157 0.094802581 0.63397628
0.16474803 0.095159084 0.63318771
0.17505227 0.095279843 0.6329565
0.18387289 0.092462003 0.63527274
0.17438667 0.10086477 0.63800001
0.1385864 0.13875946 0.63742864
0.14508656 0.1385186 0.63740921
0.15484837 0.13755453 0.63644099
0.16451994 0.13682939 0.63697779
0.17505015 0.13734718 0.63478005
0.18475778 0.13645659 0.63283736
0.19584374 0.13712834 0.6330691
0.20480928 0.13618658 0.634
0.21497944 0.13463202 0.63472712
0.22504503 0.13566582 0.63385713
0.23580925 0.13489528 0.63447922
0.24516694 0.13460803 0.63349104
0.25258803 0.13611501 0.63499999
0.12795427 0.14481248 0.63787508
0.13513151 0.14525901 0.63717192
0.14517181 0.14526661 0.63562346
0.15467326 0.14446156 0.63254076
0.16429958 0.14416729 0.6325441
0.17407991 0.14144044 0.6307779
0.13683541 0.15379517 0.63705122
0.1452927 0.1548769 0.63607812
0.15496051 0.15509844 0.63346148
0.16381192 0.1547565 0.63136691
0.13914476 0.16041143 0.63800001
0.14712828 0.16343987 0.6379618
0.15447842 0.16432796 0.63686526
0.16475506 0.16525625 0.63575923
0.1747417 0.16586332 0.63176602
0.18420647 0.16779485 0.63054174
0.25524917 0.16414706 0.63180006
0.13881762 0.17882572 0.6365
0.14541382 0.17734137 0.63692868
0.15482187 0.17781229 0.63777804
0.16573487 0.17574546 0.63745171
0.17536683 0.17548795 0.63587499
0.18507455 0.17515376 0.63298696
0.19368583 0.17620051 0.63038456
0.20320003 0.17840001 0.63000005
0.2486182 0.17650913 0.63000011
0.25421658 0.17692812 0.63505268
0.1364487 0.1819727 0.63617396
0.1449694 0.18213329 0.63563329
0.15512781 0.1819481 0.63532263
0.16602804 0.18409666 0.6350643
0.17480162 0.18287328 0.63195133
0.18369268 0.18224308 0.63103449
0.19225049 0.18044764 0.63016677
0.21934667 0.18869907 0.63100004
0.22604002 0.18874034 0.63033342
0.23483303 0.18858759 0.63062513
0.24586913 0.18552622 0.63188905
0.25262368 0.18425879 0.63520837
0.20517679 0.19563219 0.63689119
0.21669938 0.19570939 0.63538241
0.22496386 0.19518556 0.63346261
0.23468494 0.19521433 0.63310224
0.24421039 0.19424501 0.63651514
0.25116003 0.19170667 0.63700002
0.20902096 0.20172954 0.63800001
0.21544024 0.20159329 0.63711774
0.22541654 0.20298669 0.63720703
0.23415855 0.20219621 0.63676482
0.24061716 0.20051429 0.63800001
0.10869254 -0.064321272 0.64116669
0.1142342 -0.065044902 0.64028579
0.1080889 -0.057701588 0.64000005
0.098234937 0.037829526 0.64066672
0.10121143 0.049371429 0.648
0.10409826 0.055152901 0.64393955
0.21912383 0.053942859 0.64000005
0.1076101 0.064189032 0.645069
0.11146571 0.067911841 0.64157146
0.21616158 0.067067891 0.6410358
0.22095239 0.068571433 0.64000005
0.11419999 0.074760646 0.64450008
0.2152006 0.072178341 0.64127272
0.22442436 0.072647631 0.640158
0.23076002 0.073257148 0.64100003
0.11924636 0.080989853 0.64100003
0.12510911 0.087316513 0.64361119
0.12773333 0.091770567 0.64709091
0.13539992 0.095148526 0.64418757
0.14318874 0.097273864 0.64127272
0.15349792 0.099079244 0.64060009
0.16213334 0.099961907 0.64000005
0.17920002 0.099961907 0.64000005
0.18644629 0.097161852 0.64177775
0.19274637 0.095009834 0.64175999
0.13947429 0.10121143 0.648
0.14628026 0.1021336 0.64636368
0.15536845 0.10371684 0.64514589
0.16539845 0.10441731 0.64473999
0.17381814 0.1047224 0.64572966
0.18533906 0.10211515 0.64518189
0.19205572 0.1007762 0.64324999
0.11991048 0.12980001 0.64900005
0.12238286 0.12980001 0.64900005
0.13653904 0.12924175 0.64845449
0.14497119 0.12955001 0.64775002
0.155331 0.12941821 0.6477778
0.16246286 0.12913644 0.64800012
0.17575333 0.12982476 0.64300001
0.1898381 0.12982476 0.64300001
0.19539963 0.12941514 0.6462667
0.20649232 0.12916884 0.64809102
0.21508607 0.12841834 0.648
0.22510195 0.12819409 0.64552629
0.23519301 0.12813173 0.64538234
0.24458122 0.12798388 0.64472234
0.25419372 0.12846689 0.64670593
0.088387623 0.13968953 0.64900005
0.097131521 0.13731532 0.64834619
0.10561257 0.13572592 0.64747256
0.11508664 0.13535409 0.64581323
0.12483861 0.13512136 0.64405531
0.13484651 0.13463809 0.64352024
0.14495033 0.13373283 0.6430679
0.15499555 0.13296887 0.64372557
0.16544138 0.13254771 0.64300007
0.17482938 0.13260467 0.64197361
0.18523689 0.13237725 0.64325589
0.19512302 0.13319334 0.64204252
0.20468755 0.1319579 0.64230567
0.214596 0.13120475 0.64311111
0.22509989 0.13216679 0.64118767
0.23440693 0.13193852 0.64137506
0.24456684 0.13103126 0.64091671
0.25535411 0.13241434 0.64336842
0.2604343 0.13268477 0.648
0.088387623 0.14339809 0.64900011
0.0955218 0.14474051 0.64819962
0.10537522 0.14480993 0.64664596
0.11498969 0.14496312 0.64224982
0.12427847 0.14516224 0.64043099
0.13297778 0.14151113 0.63999999
0.097623318 0.15255393 0.64838099
0.10543267 0.15443633 0.64722025
0.11508495 0.15479504 0.64350754
0.12500197 0.15535653 0.6416949
0.13286528 0.15663774 0.64048493
0.10852255 0.16144636 0.64866674
0.11565995 0.1644311 0.64767343
0.12523328 0.16460545 0.64451551
0.13497022 0.16539861 0.6419152
0.14385507 0.16614857 0.64064449
0.15785062 0.169175 0.64028579
0.16132066 0.16904128 0.64000005
0.098759435 0.17779104 0.6473
0.10515703 0.1768641 0.64749998
0.11567496 0.17565119 0.64571202
0.12506565 0.175061 0.64445567
0.13479741 0.17493793 0.64264399
0.14489001 0.17416643 0.64092159
0.15562658 0.17398295 0.64064455
0.16245843 0.17310478 0.64000005
0.099282861 0.18068287 0.64750004
0.10644775 0.18149948 0.64772218
0.1154874 0.18162338 0.64355558
0.12546721 0.18265751 0.64210349
0.1330613 0.18118705 0.64036363
0.15264462 0.18635865 0.64185715
0.16424319 0.18935367 0.64833337
0.16571286 0.1951063 0.64738894
0.17542112 0.19596067 0.64713347
0.18442012 0.19563906 0.64542383
0.19495772 0.19637693 0.64242309
0.20125957 0.19770978 0.64072722
0.2153651 0.19951747 0.64000005
0.24759707 0.1980994 0.64090919
0.25125402 0.19718714 0.64150006
0.16798459 0.20192952 0.64800006
0.1736781 0.20197189 0.64807695
0.18592423 0.20329753 0.64759475
0.19540888 0.2052069 0.64647454
0.20487466 0.20532213 0.64298224
0.21473202 0.20613177 0.64120454
0.22474666 0.2075482 0.64095658
0.23550752 0.20727475 0.64126933
0.24509516 0.20515162 0.64295745
0.25201526 0.2050577 0.6448096
0.19484265 0.2111984 0.64900011
0.20760134 0.2133061 0.64731252
0.21496859 0.21518795 0.6459828
0.22457828 0.214963 0.64479995
0.23476923 0.21521926 0.6461091
0.24507195 0.21489455 0.64755565
0.25074363 0.21178894 0.64720005
0.20921144 0.22525714 0.648
0.21454929 0.22299914 0.64823693
0.22607581 0.22312225 0.64815158
0.23465054 0.22319268 0.64802575
0.24229336 0.2218962 0.64900011
0.10028572 0.049523812 0.65000004
0.099374153 0.054834291 0.65214288
0.10159664 0.056744535 0.65094119
0.10372192 0.062571429 0.65109092
0.10928762 0.073893338 0.65200001
0.11171794 0.076168254 0.65108335
0.1223873 0.087657146 0.65122223
0.12691864 0.094481774 0.65142864
0.13153352 0.097834468 0.65090913
0.13511866 0.10241286 0.65433335
0.1453921 0.10600163 0.65240008
0.15362723 0.10875782 0.6530714
0.16144381 0.10970667 0.65450001
0.17828572 0.10585715 0.65000004
0.1857143 0.1052381 0.65000004
0.14735562 0.11136419 0.6584
0.15621145 0.11424822 0.65794611
0.16489801 0.11529845 0.65807176
0.17434637 0.11553628 0.65774024
0.18131334 0.11857478 0.65875006
0.06150667 0.12928954 0.65900004
0.07656952 0.12928954 0.65900004
0.085136637 0.12935725 0.65645456
0.095588408 0.12883639 0.65640903
0.10492121 0.1283768 0.65577775
0.11453402 0.12817189 0.65514296
0.12553319 0.12786999 0.6549688
0.13404419 0.12712963 0.6537419
0.1457283 0.12723848 0.6553055
0.15498775 0.12527186 0.65644795
0.16513091 0.12498063 0.65750772
0.17491445 0.12509963 0.65698624
0.18376541 0.12637791 0.65708709
0.19471528 0.12797928 0.65581822
0.20527218 0.12661031 0.65485716
0.21510257 0.12485475 0.65410835
0.22474717 0.12424839 0.65397507
0.235324 0.12477092 0.65623528
0.24504976 0.123624 0.65562499
0.25420022 0.12463772 0.6544081
0.25999999 0.12814286 0.65000004
0.048954289 0.13933143 0.65900004
0.055703219 0.13584864 0.65839553
0.064811058 0.13509628 0.65700024
0.075066745 0.13477667 0.65520525
0.084900223 0.13493751 0.65224332
0.093954556 0.13403927 0.65172547
0.1037802 0.13144732 0.65135014
0.11456858 0.13005 0.65025002
0.12727621 0.13024762 0.65000004
0.13054731 0.13054603 0.65066671
0.1682781 0.13102096 0.65200001
0.173527 0.13071333 0.65150005
0.18540534 0.13035487 0.65239996
0.25876191 0.13061905 0.65000004
0.26041269 0.1308254 0.65000004
0.048954289 0.14058667 0.65900004
0.055911791 0.14415783 0.65892881
0.064798735 0.14472236 0.65601522
0.075179137 0.14497863 0.65301591
0.084277391 0.14547813 0.65028554
0.091088444 0.14857143 0.65000004
0.066756241 0.15424414 0.65835309
0.074859105 0.15480612 0.65575022
0.085180841 0.15495618 0.65310168
0.093758591 0.15584654 0.65120506
0.10229763 0.15925002 0.65000004
0.066109218 0.16722563 0.65899998
0.075502194 0.16229343 0.65845007
0.085093565 0.16519284 0.65701562
0.095137708 0.1651258 0.65444613
0.10454489 0.16541843 0.65190208
0.11227293 0.16783567 0.65028584
0.058996193 0.17385048 0.65900004
0.065031514 0.17393784 0.65814626
0.075152159 0.17512329 0.65585309
0.084862269 0.17453741 0.65387315
0.094860837 0.17431159 0.6529355
0.104646 0.17222226 0.65182859
0.11208881 0.17171168 0.65107691
0.1085781 0.18703049 0.65900004
0.11736476 0.18828571 0.65900004
0.12378886 0.18908817 0.65742862
0.13343512 0.18908955 0.65557146
0.14160477 0.18963811 0.65500003
0.156 0.18942858 0.65000004
0.16157144 0.18942858 0.65000004
0.12723097 0.19221967 0.65850002
0.13572034 0.1938172 0.65735424
0.14489892 0.19467223 0.6542064
0.1550758 0.19453606 0.6521588
0.16128166 0.19600345 0.65100002
0.14580289 0.20380779 0.65800023
0.15460275 0.20332323 0.65657496
0.16415203 0.20531267 0.65514302
0.17620704 0.20629607 0.6536563
0.1835146 0.20752971 0.65156519
0.19066668 0.20923811 0.65000004
0.16735382 0.21127075 0.65875
0.17629503 0.21394037 0.65770477
0.18466529 0.21481448 0.65483648
0.19456372 0.21597904 0.65235424
0.20463638 0.21632375 0.6513024
0.17889908 0.22111621 0.65833342
0.18537344 0.22143456 0.65757895
0.19493631 0.22318177 0.65545237
0.20488511 0.2236353 0.65241671
0.21480954 0.22595239 0.65000004
0.22423643 0.22679316 0.6514706
0.24483335 0.22069052 0.65000004
0.22850832 0.24732667 0.65864295
0.23513684 0.24604706 0.65716714
0.24345128 0.24625973 0.65612507
0.22797239 0.25193736 0.65869999
0.23550117 0.25319552 0.65700006
0.24445398 0.25509945 0.65726203
0.24679917 0.26398626 0.65899998
0.12958857 0.099097148 0.66700006
0.12958857 0.10100286 0.66700006
0.1354938 0.10614247 0.66311997
0.14280458 0.10779657 0.66113347
0.1847019 0.10858205 0.66285729
0.19057144 0.10926095 0.66700006
0.1374221 0.11539222 0.66697139
0.14441724 0.11579093 0.66282123
0.1525362 0.11739731 0.66183335
0.17836508 0.11373398 0.66100001
0.18523651 0.11487836 0.66236353
0.1945045 0.11603865 0.66694736
0.2010362 0.11769524 0.66800004
0.22636178 0.11873113 0.66608334
0.23548923 0.11841917 0.66551608
0.24477348 0.11915185 0.66341186
0.25502372 0.11855524 0.66451848
0.26276726 0.11794478 0.66735721
0.027610889 0.12915429 0.66757149
0.035413787 0.12858149 0.66742855
0.045030244 0.12811594 0.6659584
0.055749707 0.12761781 0.66481084
0.065301627 0.12659451 0.66383332
0.07489071 0.12581812 0.66384917
0.085151941 0.12657653 0.66425586
0.095084108 0.12506969 0.66386956
0.10514693 0.12457955 0.66511369
0.11543506 0.12511639 0.66329998
0.12407567 0.12533827 0.66517854
0.13674618 0.12380322 0.66617131
0.14434925 0.12333864 0.66224378
0.15203001 0.12118334 0.66100001
0.18757543 0.12317667 0.66225004
0.19509995 0.12348217 0.6643182
0.20459545 0.1228231 0.66555572
0.21442533 0.12226546 0.6643334
0.22456162 0.12128633 0.6635834
0.23444711 0.12137193 0.66194743
0.24245661 0.12122831 0.66100001
0.25725111 0.12159048 0.6615001
0.26348203 0.12300052 0.66536844
0.018760478 0.13672976 0.66775012
0.024904123 0.13536525 0.66669357
0.034769673 0.13465676 0.66381222
0.044721771 0.13491614 0.66233772
0.052342221 0.13287547 0.66150016
0.019085715 0.14123429 0.66800004
0.026254771 0.14371862 0.66700006
0.034838509 0.14507458 0.66517198
0.044657417 0.14499997 0.66163617
0.052376386 0.14667904 0.66100019
0.028628573 0.15014096 0.66800004
0.035838734 0.15323171 0.66723329
0.045152314 0.15456103 0.66570359
0.054821525 0.15493885 0.66235071
0.062407263 0.15572894 0.66138458
0.034990478 0.16922668 0.66800004
0.047275741 0.1655436 0.66747355
0.055122335 0.16538672 0.66534853
0.064546451 0.16511123 0.66205072
0.074768446 0.16654728 0.6613999
0.080998734 0.16703366 0.66100001
0.029264765 0.17240763 0.66800004
0.035305899 0.1722032 0.66529727
0.044371389 0.1729324 0.66367501
0.05473806 0.1738157 0.66256249
0.062216382 0.17581715 0.66119999
0.072246134 0.17109376 0.66155559
0.068618096 0.18004382 0.66100001
0.087721676 0.18512428 0.66625005
0.095356256 0.18576363 0.66426313
0.10449144 0.18828316 0.66316682
0.1146581 0.18837002 0.6615001
0.098452583 0.19156344 0.66780001
0.10548763 0.19381815 0.66590244
0.11538394 0.19488844 0.66414291
0.12432164 0.19632339 0.6617319
0.13350327 0.19857673 0.66122234
0.11685807 0.20310615 0.66744012
0.12534308 0.20485049 0.6656599
0.13498817 0.20466667 0.66318649
0.14239088 0.20731774 0.66185004
0.15528256 0.20858225 0.66100013
0.1611581 0.20900191 0.66100001
0.12978286 0.21121526 0.66800004
0.13583672 0.21387529 0.66736096
0.1459552 0.21439241 0.66589993
0.15496185 0.21492706 0.66269994
0.1639799 0.21551515 0.66182005
0.17257817 0.21703693 0.6616112
0.14886858 0.22012192 0.66800004
0.15675142 0.22033334 0.66100001
0.16566655 0.22205755 0.66535711
0.17336653 0.22123688 0.66371429
0.19849144 0.23920763 0.6680001
0.20728476 0.23772793 0.66792876
0.21478446 0.23726822 0.66745704
0.2248282 0.23697303 0.66736835
0.23511709 0.23762549 0.66733319
0.24459758 0.23873219 0.66568756
0.25067049 0.23894192 0.66550004
0.18907581 0.24569678 0.66800016
0.19529307 0.24460146 0.66683334
0.20530786 0.24450408 0.66493517
0.21500434 0.24458331 0.66260237
0.22480668 0.24411726 0.66295922
0.23470518 0.24127434 0.66343337
0.24543566 0.24223329 0.66196156
0.25004572 0.24120574 0.66300005
0.19671409 0.2519834 0.66780013
0.20540538 0.25472143 0.66619647
0.21504095 0.25482044 0.6640386
0.22438493 0.25556397 0.66196078
0.23370798 0.25818983 0.66152382
0.20771992 0.26333246 0.66733336
0.21518534 0.26411724 0.66707838
0.22489257 0.26525804 0.66583592
0.23516583 0.26535457 0.66306645
0.24344741 0.26514822 0.66156107
0.21863745 0.27313781 0.6680001
0.22523561 0.27460954 0.66770458
0.23517035 0.27527019 0.66586435
0.2443509 0.27509171 0.66417009
0.25187844 0.27686837 0.66711104
0.23656631 0.2837415 0.66733325
0.24425022 0.28399825 0.66686839
0.25070733 0.28289273 0.66700006
0.23818973 0.29061183 0.66800004
0.2411162 0.2901029 0.66800004
0.12859143 0.10791381 0.6785
0.13192536 0.1077887 0.67368746
0.19573699 0.1086908 0.67200005
0.20357788 0.10828088 0.67676938
0.25714707 0.1098362 0.67839998
0.031686667 0.11834 0.67900002
0.067900002 0.11898667 0.67900002
0.086528048 0.1192252 0.6746667
0.09250395 0.11917089 0.67585725
0.10236572 0.11974858 0.67600006
0.12838151 0.11599843 0.67800003
0.13272747 0.11469883 0.67381394
0.19764259 0.11264673 0.67070591
0.20520307 0.11538097 0.67396158
0.21529043 0.11760803 0.67439574
0.2250111 0.11579579 0.6746732
0.23463422 0.11446163 0.67483783
0.24558474 0.11526122 0.67505556
0.25450245 0.11403713 0.67344439
0.26364508 0.11466118 0.67555547
-0.011778412 0.12826414 0.67866665
-0.0045725172 0.12672369 0.67731428
0.0045079598 0.12626125 0.67642844
0.014860398 0.12531234 0.67529261
0.024901645 0.12433236 0.67421764
0.034849305 0.12389877 0.6733079
0.045131188 0.12329675 0.6742183
0.054770991 0.12271699 0.67344177
0.064994395 0.1219949 0.67497379
0.074774414 0.1215042 0.67548001
0.084740601 0.12195702 0.67163634
0.09510684 0.1212838 0.67273909
0.10495385 0.12109815 0.67341185
0.11567245 0.12245899 0.67555177
0.12530135 0.12173805 0.67482859
0.13176328 0.12288824 0.6708889
0.2078 0.12050667 0.67066669
0.21695237 0.1212381 0.67000002
-0.014394854 0.13532279 0.67831594
-0.0052762972 0.13481219 0.67644435
0.0044842265 0.13526259 0.67312515
0.014195626 0.13462648 0.67122829
0.021695239 0.13080953 0.67000002
-0.012927919 0.1424731 0.67868423
-0.00474995 0.14431703 0.67674464
0.0044901697 0.14495933 0.6734646
0.014633596 0.1448283 0.67189121
0.022780869 0.14730585 0.67095643
-0.0021002381 0.15298644 0.6785
0.0046020094 0.15495145 0.67800021
0.014884265 0.15477605 0.67532206
0.024809144 0.15498208 0.67181498
0.034378305 0.1577355 0.67065209
0.04147619 0.15952381 0.67000002
-0.0036926451 0.16557653 0.67722237
0.0044889874 0.1651673 0.67716926
0.014716703 0.16519356 0.67600006
0.02508375 0.16544881 0.67366189
0.035041217 0.16518593 0.67195237
0.043017086 0.16536707 0.67040616
-0.0033588575 0.17129411 0.67820007
0.004884311 0.17256585 0.67715794
0.015031788 0.17260042 0.67356247
0.02419897 0.17267315 0.67170835
0.047805719 0.17959684 0.6783334
0.047997285 0.18183759 0.67842859
0.055108923 0.18479638 0.67744732
0.064684615 0.18624046 0.67604661
0.07483048 0.18687001 0.67268759
0.083847389 0.18744946 0.67079157
0.090609521 0.1882381 0.67000002
0.058200002 0.19012003 0.67900008
0.066196635 0.19183666 0.67838466
0.075623274 0.19403706 0.67658544
0.085191436 0.19494715 0.67379999
0.094775103 0.19534621 0.67120743
0.10249835 0.19803326 0.67036372
0.11102857 0.19908573 0.67000002
0.078893334 0.20046666 0.67900002
0.085305594 0.20245741 0.67813045
0.095318452 0.2042774 0.67606968
0.10515147 0.20489496 0.67282164
0.11366122 0.20660278 0.67069435
0.12196761 0.20945144 0.67050004
0.099586666 0.21081333 0.67900002
0.10606583 0.21396197 0.67788243
0.11501956 0.21511462 0.67472911
0.1248529 0.21531717 0.67262268
0.13346455 0.21708643 0.67024994
0.14367858 0.21903048 0.67049998
0.11781715 0.22018287 0.67600006
0.12526001 0.2208181 0.67450005
0.13952002 0.22144002 0.67200005
0.14599988 0.22284807 0.67305881
0.15270455 0.22357988 0.67244446
0.13903333 0.23926668 0.67900002
0.14589423 0.23732927 0.67728126
0.15423246 0.23719038 0.67748392
0.1649591 0.23714143 0.67802715
0.17498568 0.23782635 0.67675
0.18544006 0.23558088 0.67582864
0.19429798 0.23573571 0.67400014
0.20506498 0.23649897 0.67297822
0.21791458 0.23559496 0.671
0.22205715 0.23481905 0.67000002
0.23992382 0.23609525 0.67000002
0.24642931 0.23589765 0.67153847
0.25417447 0.2356441 0.67441678
0.13903333 0.24056001 0.67900002
0.1459281 0.24362792 0.67784631
0.15499611 0.24511343 0.67788696
0.16491327 0.24473992 0.67606741
0.17501687 0.24425867 0.6731562
0.18425074 0.24455802 0.67096609
0.19057779 0.2416254 0.67000002
0.15524413 0.25216109 0.67889476
0.16543534 0.25363159 0.67730957
0.1750719 0.25459254 0.67510885
0.18503596 0.25506395 0.67362487
0.1942527 0.25665846 0.67126846
0.20036191 0.25842857 0.67000002
0.17578763 0.2614713 0.67816663
0.18543066 0.26499981 0.67765999
0.19496754 0.26499438 0.6744644
0.2032548 0.26546749 0.67183328
0.21542096 0.26851049 0.67000002
0.16878001 0.27224666 0.67899996
0.17224848 0.27665576 0.67899996
0.18761778 0.27210554 0.67891663
0.19494779 0.27481556 0.67751682
0.2054565 0.27502692 0.67345726
0.21494995 0.27536654 0.67117643
0.22141905 0.27948573 0.67000002
0.17265999 0.28130001 0.67900002
0.19678876 0.28145096 0.67858332
0.20555471 0.2850695 0.67676818
0.21517061 0.28492567 0.67336363
0.2250756 0.28461802 0.6711632
0.23266813 0.28682196 0.67080951
0.24644656 0.28827727 0.67000002
0.25013334 0.28841904 0.67000002
0.18848513 0.29550976 0.67884618
0.19503896 0.29479781 0.6773833
0.20506927 0.29422477 0.67521209
0.21542865 0.29390135 0.67413449
0.22516841 0.29409304 0.67433947
0.23467368 0.29433385 0.67227089
0.245415 0.2941553 0.6716333
0.25097314 0.29418162 0.67377782
0.12653315 0.10562452 0.68487501
0.13092192 0.10343778 0.68166673
0.22736341 0.10931978 0.68688887
0.23561467 0.10817046 0.68637037
0.24517547 0.10811918 0.68696296
0.25460213 0.10803359 0.68703711
0.26517025 0.108789 0.68766671
0.27157399 0.10915302 0.68766677
-0.022278097 0.11925334 0.68800008
-0.015068572 0.11923167 0.68787503
-0.0046485718 0.11887026 0.68622226
0.0042182691 0.11892008 0.68609095
0.015434548 0.11827 0.68520695
0.025363095 0.11772224 0.68293744
0.035601176 0.11736833 0.68349993
0.045200847 0.11776788 0.68432343
0.054948889 0.11750028 0.68502778
0.064688146 0.11766532 0.68568754
0.075193703 0.11657386 0.68471426
0.084360123 0.11770252 0.68427587
0.095402867 0.11734308 0.68524992
0.10486085 0.11748358 0.68455273
0.11555482 0.1176518 0.68463898
0.12408226 0.11492434 0.68275011
0.21550748 0.11288672 0.6834138
0.22381136 0.11144395 0.68299997
0.2349406 0.11109613 0.68147051
0.24503024 0.11095898 0.68159997
0.25275761 0.11045954 0.68225002
0.26717123 0.11240933 0.68457901
0.27336925 0.11291449 0.68721056
-0.05267125 0.127703 0.68786675
-0.044827059 0.12570424 0.68692613
-0.034916606 0.12455471 0.68571669
-0.024982275 0.12505423 0.68415362
-0.01540653 0.12430146 0.6830951
-0.0060335994 0.12230408 0.68251991
0.0047363592 0.12133436 0.68194115
0.014253061 0.12050778 0.68028575
0.03626667 0.12045715 0.68000001
0.05272254 0.12057524 0.68066669
0.077066667 0.12045714 0.68000001
0.10750476 0.12045714 0.68000001
0.11333606 0.12074342 0.68057144
-0.052650981 0.13405868 0.6877619
-0.045005389 0.13515349 0.68593681
-0.035139903 0.13470188 0.68326777
-0.025364842 0.13499849 0.68191779
-0.018688437 0.13285443 0.68000001
-0.051108576 0.14153144 0.68800008
-0.044851512 0.14452757 0.68627107
-0.034743693 0.14526147 0.68669105
-0.024846017 0.14480041 0.68349999
-0.015922936 0.14652067 0.68121636
-0.0084323809 0.14852287 0.68099999
-0.051064003 0.15450135 0.68740004
-0.04653484 0.15553002 0.68768418
-0.024600036 0.15519732 0.68704093
-0.014994287 0.15512899 0.68437511
-0.0058016721 0.15521824 0.68212193
0 0.15672381 0.68000001
-0.04378235 0.16339323 0.68773073
-0.034845792 0.16527291 0.6859805
-0.025196131 0.16505584 0.68437707
-0.014976695 0.16471975 0.68364036
-0.007098096 0.1633085 0.68234622
0.0064761904 0.16060953 0.68000001
0.010361905 0.16060953 0.68000001
-0.037321907 0.17023811 0.6875
-0.022733334 0.17017524 0.68200004
-0.014948334 0.1702688 0.68237507
-0.0036127733 0.17674008 0.68611771
0.001541645 0.17719083 0.68400002
0.016467301 0.17872193 0.68266672
0.024531083 0.17915447 0.68427277
0.030097144 0.17927429 0.68700004
-0.0029467463 0.18463191 0.6874584
0.0010476193 0.18519619 0.68759996
0.017362922 0.18314961 0.68713337
0.025423111 0.18453972 0.68723685
0.034561869 0.18479331 0.68570709
0.044593249 0.18587506 0.6824047
0.05202762 0.18850334 0.68075001
-0.0026209527 0.19001906 0.68800008
0.037103858 0.19331819 0.68752384
0.044961408 0.19496815 0.68644458
0.055296328 0.19507563 0.68361717
0.064883746 0.19637862 0.68250006
0.07259544 0.19821639 0.68059999
0.046594713 0.20079409 0.68800008
0.055486757 0.202124 0.68763644
0.065015391 0.20486711 0.68654013
0.074705184 0.20498122 0.68277752
0.08407028 0.20707561 0.68128568
0.092966668 0.20860998 0.68024993
0.068331979 0.21192272 0.68800008
0.075191773 0.21255295 0.68709099
0.085569374 0.21383227 0.68518919
0.09493158 0.21484366 0.68257141
0.10287328 0.21763086 0.68094748
0.091733329 0.22016001 0.68800002
0.11496572 0.22213715 0.68200004
0.12752159 0.22687589 0.68783331
0.1333515 0.22819912 0.68792319
0.14371151 0.22820784 0.68463171
0.15575916 0.22864509 0.68333334
0.16232571 0.22947049 0.68450004
0.17783999 0.22930285 0.68400002
0.18109715 0.22930285 0.68400002
0.10876953 0.23667203 0.68800002
0.11485367 0.23612985 0.68721581
0.12507507 0.23541418 0.68458724
0.13509771 0.23477383 0.68373585
0.1445221 0.23323226 0.68343771
0.15536211 0.23319611 0.68324345
0.16468875 0.23271464 0.6832251
0.17497699 0.23331757 0.68261701
0.18201938 0.23237377 0.68199998
0.25904763 0.23249523 0.68000001
0.11591451 0.24395762 0.68774277
0.12497633 0.24486107 0.68522412
0.13487273 0.24508108 0.68180335
0.14314203 0.24781819 0.68077791
0.12714614 0.25387564 0.68760008
0.13511325 0.25531852 0.68635297
0.14494655 0.25480181 0.6825
0.15473677 0.25676861 0.68091673
0.1636626 0.25812241 0.68000001
0.13604769 0.26287314 0.68783993
0.14482622 0.26488173 0.6866315
0.15468505 0.26507431 0.68418008
0.16481385 0.26553041 0.68257129
0.1740966 0.26646131 0.68162781
0.18077824 0.26737416 0.68000001
0.14619088 0.27250621 0.68800002
0.15520586 0.27483249 0.68725461
0.16481006 0.27506262 0.68310916
0.17578579 0.27479929 0.68180013
0.18397093 0.27559999 0.68135548
0.19039999 0.27977145 0.68000001
0.1579124 0.28306285 0.68800008
0.16621664 0.28540102 0.68597621
0.17516242 0.2854431 0.68400013
0.18539725 0.28491631 0.68263757
0.19427572 0.28620282 0.68200004
0.20207895 0.2885524 0.6812728
0.15742819 0.29278627 0.68760002
0.16515839 0.29376709 0.68545854
0.1755033 0.29366076 0.68337727
0.18414012 0.29383138 0.68203634
0.19512638 0.29062843 0.68141669
0.2013524 0.29098672 0.68200004
0.11892825 0.10920127 0.69633335
0.12216934 0.10701122 0.69216675
0.21533087 0.10784526 0.69548285
0.22525896 0.10703468 0.69529426
0.2347206 0.1044851 0.69540918
0.24504277 0.10332784 0.69421959
0.25484195 0.10333972 0.69391906
0.26450148 0.10461066 0.69169068
0.27552468 0.10805523 0.69655555
-0.062110953 0.11923905 0.69749999
-0.05467838 0.11715395 0.69661766
-0.044799164 0.11748714 0.69352961
-0.035023768 0.11677042 0.69386005
-0.025230333 0.11669572 0.69447517
-0.015376606 0.11579064 0.69393498
-0.0050746845 0.11445057 0.69441879
0.0038974001 0.11521798 0.69445956
0.014559301 0.11618637 0.69484222
0.025179593 0.11596271 0.69578582
0.035567742 0.11545832 0.69475007
0.045062933 0.11443358 0.69344008
0.05591559 0.11362547 0.69440919
0.064947501 0.11370039 0.69461769
0.073765717 0.11263851 0.6935789
0.085336223 0.11386071 0.69303232
0.094772607 0.11327601 0.69391191
0.10522137 0.11291037 0.69445461
0.11452083 0.11286235 0.69447505
0.12121011 0.11198992 0.69170004
0.21439147 0.11067887 0.69010007
0.22080003 0.11040001 0.69000006
-0.062921219 0.12514953 0.69612908
-0.055636823 0.12368159 0.69233358
-0.04662307 0.12130307 0.69055557
-0.062622607 0.13492845 0.69626099
-0.057119805 0.13561581 0.69146681
-0.061764445 0.1421238 0.69733334
-0.055661839 0.14524567 0.6945349
-0.04682143 0.14818572 0.69000006
-0.054662794 0.15346605 0.69611114
-0.042948402 0.15481293 0.69056529
-0.034874763 0.15529625 0.690929
-0.028914288 0.15640001 0.69000006
-0.051851433 0.16087238 0.69800007
-0.044253446 0.16710623 0.69047064
-0.034987409 0.16088411 0.6901539
-0.044447269 0.17499873 0.69434214
-0.039070267 0.17464444 0.69400007
-0.014335606 0.17687072 0.69615394
-0.0077572614 0.17684653 0.69318748
0.0072555556 0.17899364 0.69266671
0.010529525 0.17900191 0.69100004
-0.044229843 0.18319516 0.69777775
-0.039885715 0.18081523 0.69800001
-0.012670603 0.1823412 0.69773334
-0.007245352 0.18478775 0.69414288
0.005982907 0.18484001 0.69352633
0.013632678 0.18584566 0.69212514
0.022561908 0.18881905 0.69000006
-0.044385642 0.19175828 0.69800007
-0.0039668032 0.19304775 0.6935001
0.003126835 0.19306488 0.69676465
0.016018569 0.19371408 0.69616675
0.02523 0.1949352 0.69306833
0.033243209 0.19614407 0.69125015
0.026262553 0.20411149 0.69729036
0.035192341 0.20482016 0.69522238
0.044978451 0.20563009 0.69189495
0.054151464 0.2069951 0.69121742
0.060457144 0.20897144 0.69000006
0.02459619 0.21006477 0.69800001
0.039404448 0.21163493 0.69733334
0.045522362 0.21216933 0.69514292
0.055185802 0.21321864 0.69551438
0.064102337 0.21389574 0.69203341
0.075075239 0.2166713 0.69150013
0.088842861 0.21980383 0.69100004
0.073788568 0.22070096 0.69800001
0.086541913 0.22360447 0.69633335
0.095412232 0.2268364 0.69733346
0.1049099 0.22765194 0.69689995
0.11424493 0.22784047 0.69414711
0.1235441 0.22810018 0.69107145
0.13788161 0.22797462 0.69050002
0.14062859 0.22737144 0.69000006
0.075782858 0.23510411 0.69800007
0.08546181 0.23442677 0.69691682
0.094923861 0.23430207 0.69353873
0.10478409 0.23388369 0.69212115
0.11489301 0.23144585 0.69056529
0.12494643 0.23082425 0.69050008
0.13438572 0.23032859 0.69000006
0.086834282 0.24366924 0.69777787
0.094791017 0.24527991 0.6960538
0.10480317 0.24498679 0.69298369
0.1128343 0.24701516 0.69023538
0.088546291 0.25234362 0.69800001
0.095229939 0.25267261 0.69788003
0.1054373 0.25477153 0.69620937
0.11516493 0.25490513 0.69296104
0.12327056 0.25607154 0.69084007
0.10690204 0.26507384 0.69800001
0.11466462 0.26516268 0.69651687
0.12450835 0.26492429 0.69266146
0.13344322 0.2665714 0.69034511
0.14128572 0.26942858 0.69000006
0.10795733 0.27175468 0.69800001
0.1157265 0.27361315 0.69741184
0.12515247 0.27467045 0.69530433
0.13512595 0.27513525 0.69269115
0.14462188 0.27667418 0.69061786
0.15114287 0.2799429 0.69000006
0.12702997 0.28161731 0.69800001
0.13453805 0.28427151 0.6962046
0.14505494 0.28524098 0.69500011
0.15489276 0.28588557 0.69209111
0.16229708 0.28641087 0.69018209
0.14757715 0.29116571 0.69800007
0.15371394 0.29120332 0.6946364
0.16034287 0.29045716 0.69000006
0.1715086 0.30512574 0.69800007
0.19078666 0.30712 0.69800001
0.2191962 0.099512383 0.70600003
0.22497666 0.099688575 0.70725
0.23501277 0.098878317 0.70600009
0.24525407 0.097841099 0.70553863
0.25535163 0.098430865 0.70533347
0.26478517 0.097488023 0.70613801
0.27154571 0.099723816 0.70749998
-0.02145524 0.1099581 0.70400012
-0.0046073478 0.10975131 0.70514292
0.028581334 0.108664 0.70780003
0.035447281 0.10864381 0.70623535
0.043683957 0.108892 0.70646149
0.055644598 0.10867988 0.70647067
0.064903818 0.10833424 0.70596665
0.074976698 0.10820141 0.70626682
0.085530482 0.10878518 0.70655566
0.094944015 0.10816993 0.70590329
0.10510375 0.10746774 0.70460546
0.11505115 0.10719827 0.7037943
0.12155318 0.10522208 0.70450008
0.21634001 0.10337842 0.70145833
0.22469459 0.10283779 0.70230305
0.23406953 0.10073824 0.70050007
0.24466668 0.10000002 0.70000005
0.25539526 0.10025595 0.70062506
0.26474521 0.1009606 0.70169234
0.27586538 0.10306589 0.70251364
0.28040001 0.10414857 0.70100003
-0.070931189 0.11827381 0.70762503
-0.064167485 0.11537914 0.70539027
-0.055514287 0.11270321 0.70443755
-0.045066595 0.11385709 0.70550013
-0.034617394 0.11218317 0.70482612
-0.025412062 0.11173309 0.70207429
-0.014449192 0.11145846 0.7035653
-0.0075777788 0.11094519 0.70177776
0.0060585514 0.11244429 0.70391315
0.014742477 0.11256886 0.70360029
0.024786001 0.11254072 0.70342511
0.034356434 0.11242591 0.70161301
0.044969596 0.1116581 0.70303845
0.053869914 0.11162525 0.70270008
0.06472405 0.11076548 0.70062506
0.075572819 0.11141073 0.70163649
0.084975839 0.11107881 0.7026251
0.094761916 0.1107796 0.70071435
0.10266668 0.11066667 0.70000005
0.11066667 0.11066667 0.70000005
-0.072410695 0.12482296 0.70647627
-0.068037309 0.12503484 0.70208347
-0.072715923 0.13465908 0.70695245
-0.067808159 0.13513023 0.70240003
-0.072250389 0.14450048 0.70635009
-0.065974012 0.14510141 0.70271444
-0.060000002 0.14933334 0.70000005
-0.070752002 0.15521982 0.7062
-0.064296886 0.15468395 0.7051819
-0.057898197 0.15721376 0.70144445
-0.072179586 0.16431133 0.70611125
-0.06497445 0.16306299 0.70710355
-0.055298422 0.16541575 0.70438099
-0.049685717 0.16852763 0.70500004
-0.053305507 0.1737961 0.70730442
-0.049484357 0.1738566 0.70214289
-0.034349181 0.17742057 0.70224005
-0.025050441 0.17712185 0.70033336
-0.043369606 0.18643826 0.70145833
-0.034923598 0.18492125 0.70522738
-0.024801938 0.18497221 0.70367855
-0.015932087 0.18551816 0.70103437
-0.0093400003 0.18880191 0.70050001
-0.04073016 0.19157968 0.70500004
-0.03475165 0.19108219 0.70800012
-0.024186762 0.19248104 0.70740002
-0.014359768 0.19421779 0.70556092
-0.0070134248 0.19652916 0.70257151
0.0059620314 0.19633172 0.70070022
0.013009525 0.19783191 0.70058334
-0.010788571 0.20093715 0.708
-0.0049762973 0.20487122 0.70683366
0.0048757354 0.20449939 0.70450002
0.014894452 0.20454116 0.70273924
0.022175513 0.20613731 0.70057142
0.034679048 0.20874144 0.70025003
0.0080914283 0.21037714 0.70800006
0.015352762 0.21132191 0.70710003
0.021178288 0.21127391 0.70380002
0.035333335 0.21066667 0.70000005
0.054333337 0.21766669 0.70000005
0.060000002 0.21866669 0.70000005
0.039108571 0.22925714 0.708
0.046034638 0.22813447 0.70700008
0.05510224 0.22745503 0.70708841
0.06497556 0.22615233 0.70626444
0.074731514 0.22615993 0.70341998
0.083828814 0.22619699 0.70082533
0.090666667 0.22733334 0.70000005
0.039108571 0.23262858 0.708
0.045495279 0.23427717 0.70668894
0.055241946 0.23533972 0.70633996
0.065108202 0.2347911 0.70306545
0.074662 0.23445569 0.70023942
0.080222234 0.23533335 0.70000005
0.049088001 0.24166401 0.708
0.056052834 0.2437278 0.70719361
0.064904168 0.24471754 0.70476472
0.074925922 0.24450228 0.70166683
0.082706682 0.24600713 0.70034492
0.067005612 0.25260478 0.7075001
0.074765429 0.25519904 0.70562983
0.084373839 0.255133 0.70291108
0.094806179 0.25771976 0.70104766
0.10044446 0.25822222 0.70000005
0.068777144 0.2609486 0.708
0.075563014 0.26374573 0.70736134
0.085419744 0.26501769 0.70625943
0.095279425 0.2651453 0.70348924
0.10219917 0.26454341 0.70058632
0.087154195 0.2738516 0.70757151
0.094639234 0.27455643 0.70507556
0.10433685 0.27521566 0.70209104
0.11286961 0.2775583 0.70030767
0.095986076 0.28132644 0.70746154
0.10590979 0.28293929 0.70627278
0.11465576 0.284482 0.70282632
0.12392553 0.285606 0.70133352
0.13206223 0.28947112 0.70033336
0.14133334 0.28933334 0.70000005
0.11800001 0.29123199 0.70719999
0.12609859 0.29332119 0.70655006
0.13528329 0.29534173 0.70462507
0.14453802 0.29581445 0.70297319
0.15291765 0.29694343 0.70241183
0.13803333 0.30098003 0.70700002
0.14567079 0.30313596 0.70656013
0.15459841 0.30449566 0.70577508
0.16478458 0.307129 0.70444739
0.17523468 0.30747005 0.70023811
0.18486647 0.30880114 0.70182359
0.19466668 0.30933338 0.70000011
0.20066668 0.30933335 0.70000005
0.15688381 0.31039616 0.70800006
0.16509306 0.31214723 0.70621055
0.17478159 0.31081209 0.7013334
0.18228257 0.31095368 0.70366669
0.12408681 0.099269122 0.71814287
0.22865483 0.097733334 0.71266675
0.23514424 0.095384568 0.7143684
0.24524182 0.093781032 0.71359992
0.25511995 0.09384571 0.71411622
0.26492366 0.093372442 0.71480548
0.27510738 0.095077321 0.7141462
0.28206369 0.095517561 0.71785718
-0.063505217 0.10820089 0.71376473
-0.055116497 0.10782987 0.71254843
-0.044401832 0.10756212 0.7155385
-0.035206333 0.10707571 0.71435004
-0.025067998 0.10737834 0.71432507
-0.015741484 0.10832243 0.71483994
-0.004615678 0.10841642 0.71630776
0.0050059389 0.10784743 0.71461743
0.014986163 0.10742375 0.71341175
0.024505917 0.10666038 0.71363133
0.032695763 0.10616693 0.71545458
0.045622781 0.1064097 0.71320838
0.054312952 0.10585715 0.71355563
0.065563008 0.10436112 0.71480781
0.074656896 0.10387253 0.71516114
0.085154146 0.10453367 0.71417511
0.094909884 0.10345831 0.71445692
0.10483423 0.10293748 0.71346438
0.11477689 0.10300379 0.71461278
0.1227026 0.10199185 0.71464288
0.22564077 0.10064534 0.71020001
0.27656192 0.10007619 0.71000004
-0.066748574 0.1127508 0.71033335
-0.050582863 0.1106508 0.71133339
-0.045500282 0.11107731 0.71117651
-0.036965083 0.11089524 0.71000004
-0.0051725716 0.11034515 0.71520007
0.0051904763 0.11079904 0.71083343
-0.074380957 0.12171429 0.71000004
-0.075733334 0.13591431 0.71000004
-0.072217338 0.15497606 0.71042114
-0.06897144 0.15822858 0.71000004
-0.065514088 0.16684821 0.71184212
-0.063941985 0.17384353 0.7153846
-0.057291023 0.17645942 0.71095657
-0.06084881 0.18323047 0.717875
-0.054423057 0.18502337 0.71423078
-0.048868578 0.18733144 0.71266669
-0.053053029 0.19497974 0.71783978
-0.04505299 0.19609456 0.71672732
-0.035143774 0.19654778 0.71225804
-0.025576873 0.19720215 0.7106787
-0.01848254 0.19834921 0.71000004
-0.053945713 0.20076001 0.71700001
-0.041336764 0.20285144 0.71860003
-0.035089716 0.20368896 0.71673322
-0.02433599 0.20385797 0.71463627
-0.014925578 0.20471875 0.71209538
-0.0090802722 0.20672111 0.7100001
-0.015708094 0.21032001 0.71700007
0.008125715 0.21262287 0.71100008
0.01524369 0.21631226 0.71506262
0.022722667 0.21845487 0.71860009
0.035560865 0.21921924 0.71809095
0.042217147 0.21926668 0.71500003
0.006481573 0.22756808 0.71821737
0.015488877 0.22590287 0.71711344
0.024876164 0.22530217 0.7149049
0.03503605 0.22489096 0.71450734
0.044480752 0.2239491 0.71318609
0.054443181 0.22348666 0.7109167
0.0054708845 0.23270902 0.71835715
0.015516633 0.23438486 0.7172305
0.025147816 0.23451391 0.71372926
0.034903403 0.23502389 0.71135724
0.041923814 0.23859866 0.7100001
0.018488571 0.24103621 0.71900004
0.025656337 0.24445553 0.71747476
0.034460887 0.24529295 0.71557128
0.044614751 0.24514647 0.71132565
0.052316073 0.24751218 0.71033341
0.027177963 0.25330931 0.71857142
0.034741841 0.25477067 0.71738261
0.04502634 0.25516626 0.71636558
0.055135239 0.25511518 0.71283346
0.064142406 0.25620019 0.7102415
