# .PCD v0.7 - Point Cloud Data file format
VERSION 0.7
FIELDS x y z
SIZE 4 4 4
TYPE F F F
COUNT 1 1 1
WIDTH 508
HEIGHT 1
VIEWPOINT 0 0 0 1 0 0 0
POINTS 508
DATA ascii
0.082028575 -0.10086477 0.63800001
0.093421429 -0.10192809 0.63800001
0.069268569 -0.091142863 0.63800001
0.0757071 -0.094059646 0.63707304
0.084888481 -0.095183969 0.6374495
0.095076174 -0.094889313 0.63725865
0.10241419 -0.091889314 0.6375556
0.066404447 -0.084238581 0.63708329
0.074939869 -0.085271671 0.63575721
0.085230656 -0.085507981 0.63592428
0.094913565 -0.085243836 0.63478124
0.10456524 -0.08456102 0.6370346
0.11058667 -0.081420958 0.63800001
0.058781307 -0.07381881 0.63793755
0.064888798 -0.075062059 0.63618332
0.074869476 -0.074995063 0.63452488
0.085173056 -0.07551071 0.6342656
0.094860949 -0.075177126 0.63350737
0.10462958 -0.074728705 0.63583577
0.11131957 -0.074416727 0.63755554
0.056822717 -0.064400792 0.6370486
0.0647773 -0.064779848 0.63568759
0.074909583 -0.064661004 0.63378078
0.08477018 -0.064931229 0.63127804
0.09433981 -0.064773381 0.63178289
0.10457176 -0.064676359 0.63465619
0.11269891 -0.065926418 0.63780016
0.057481337 -0.056308065 0.63756675
0.064774662 -0.055092763 0.63567185
0.074861594 -0.054938909 0.63393044
0.084778786 -0.054715991 0.63134396
0.094540246 -0.054790482 0.63223428
0.10459188 -0.055014517 0.63478112
0.11249056 -0.054651204 0.63759375
0.059303623 -0.048366476 0.63800001
0.064984702 -0.045342404 0.63571662
0.07503511 -0.045233283 0.63421416
0.084901147 -0.045157555 0.63221896
0.094710998 -0.045243695 0.63340628
0.1047262 -0.045186117 0.63493919
0.11187626 -0.046509027 0.63776207
0.066717036 -0.036457833 0.63686109
0.075007662 -0.035082337 0.63516039
0.085200749 -0.035044085 0.63447189
0.09484151 -0.035030782 0.63427776
0.104717 -0.035175849 0.63685316
0.11106413 -0.035434447 0.63783336
0.076648034 -0.026470214 0.63566667
0.085597537 -0.026390435 0.63583714
0.095115684 -0.026392244 0.63583714
0.10302276 -0.027498044 0.63789487
0.088387623 -0.13103621 0.64900005
0.090241909 -0.13103621 0.64900005
0.059337147 -0.12176477 0.64900005
0.065873176 -0.12301321 0.64872432
0.074781671 -0.12462021 0.64810514
0.084744766 -0.12503195 0.64707571
0.094779469 -0.12505643 0.64785463
0.10334899 -0.12331891 0.64850008
0.059112381 -0.11417906 0.64900017
0.064911731 -0.11489407 0.64591175
0.075218439 -0.11500421 0.6448971
0.085159279 -0.11457137 0.64329726
0.095058776 -0.11513391 0.64394838
0.10500915 -0.11491628 0.64606547
0.11201676 -0.11484126 0.64828575
0.049447626 -0.10013144 0.64900005
0.055712298 -0.10438216 0.64808905
0.064890429 -0.10469768 0.64286119
0.075104356 -0.10502528 0.64112496
0.084886782 -0.10506681 0.64055532
0.094671585 -0.105857 0.64055556
0.10468188 -0.10468098 0.6427657
0.11405314 -0.10439213 0.64756113
0.12213563 -0.10062592 0.64900011
0.047414973 -0.094578281 0.64803439
0.055165943 -0.094902642 0.64369988
0.065023459 -0.094852835 0.64080638
0.073036872 -0.097841837 0.64000016
0.087771438 -0.098742865 0.64000005
0.097280011 -0.099474296 0.64000005
0.10595685 -0.095204465 0.64095753
0.11509901 -0.095327549 0.64463341
0.12227346 -0.094630741 0.64813048
0.046528511 -0.084815659 0.64742225
0.055045065 -0.085025221 0.64226383
0.063036032 -0.086682081 0.64017403
0.1086694 -0.087771438 0.6400001
0.11528829 -0.085256822 0.64269811
0.12382855 -0.084348843 0.64767444
0.039558098 -0.071699053 0.64900005
0.045025893 -0.074731454 0.64613116
0.053814568 -0.075425759 0.64164287
0.11637972 -0.074986286 0.64100003
0.12514146 -0.074951328 0.64633888
0.039558098 -0.064900003 0.64900011
0.044960566 -0.064890087 0.6457274
0.052008178 -0.066038035 0.641258
0.11714637 -0.064438261 0.64044106
0.1252934 -0.064644121 0.6463455
0.13103621 -0.061809525 0.64900005
0.045162372 -0.054969046 0.64572585
0.05280659 -0.054373037 0.64086968
0.11767459 -0.0555498 0.64097071
0.12473734 -0.055164844 0.64568746
0.046097856 -0.04548445 0.64722919
0.054834045 -0.044706561 0.64159715
0.060952388 -0.041447621 0.64000005
0.11649515 -0.044190392 0.64110428
0.12269924 -0.045569815 0.64480001
0.047807194 -0.035695456 0.64788896
0.055162419 -0.034938551 0.64366668
0.063493878 -0.033309292 0.64028126
0.10910477 -0.030476194 0.64000005
0.11583497 -0.034632042 0.64211369
0.12215707 -0.035541993 0.64725006
0.04903556 -0.029256511 0.64900005
0.055322696 -0.026538864 0.64664721
0.065280743 -0.025869958 0.64181817
0.072351217 -0.024851976 0.6401906
0.10779606 -0.026751705 0.64050001
0.11536405 -0.026018685 0.64472353
0.12096 -0.026537143 0.648
0.068410486 -0.15062857 0.65900004
0.076909713 -0.15181488 0.65833342
0.084274977 -0.15207008 0.65825009
0.094636835 -0.15171994 0.65828574
0.058189288 -0.14194524 0.65875
0.065004312 -0.14454031 0.65703785
0.074917175 -0.14499661 0.65631044
0.084947169 -0.14463888 0.65449089
0.09500324 -0.14471209 0.65503633
0.10410153 -0.1440853 0.65824342
0.11046096 -0.14058667 0.65900004
0.048954289 -0.13242763 0.65900004
0.055094641 -0.13463081 0.65646678
0.065155409 -0.13521533 0.65331131
0.07501062 -0.13514887 0.65092874
0.084841393 -0.13535893 0.65127784
0.095196508 -0.13559909 0.65276349
0.10489105 -0.13469855 0.65453702
0.11360594 -0.13418119 0.65817666
0.12113048 -0.13054477 0.65900004
0.047097147 -0.12361412 0.65706682
0.054986682 -0.12528071 0.65355551
0.064460829 -0.12752369 0.65126657
0.07490477 -0.13 0.65000004
0.098634928 -0.12958731 0.65000004
0.10630478 -0.12676832 0.65110707
0.11463568 -0.12474841 0.65426922
0.12106936 -0.12546176 0.65866667
0.038912382 -0.11046096 0.65900004
0.045306895 -0.11473276 0.65527701
0.05443747 -0.11487945 0.65122223
0.11713759 -0.11505232 0.65176463
0.12443882 -0.11394677 0.65682071
0.13044572 -0.11100477 0.65850008
0.037637103 -0.10459962 0.65779996
0.045075443 -0.10522908 0.65389401
0.05181969 -0.10694382 0.6503334
0.11769304 -0.10757671 0.65146154
0.12476143 -0.10546122 0.6536364
0.13081393 -0.10488118 0.65792304
0.03743444 -0.094858162 0.65572518
0.042857613 -0.095225051 0.65162504
0.12705246 -0.094668023 0.65210712
0.13259049 -0.093406096 0.65793335
0.036576126 -0.084782094 0.65554005
0.041860193 -0.085331999 0.65019995
0.12818792 -0.086665407 0.65075004
0.13331884 -0.085837424 0.65648395
0.035685744 -0.074904665 0.65445465
0.040857144 -0.078619048 0.65000004
0.13463913 -0.073721915 0.65641946
0.14058667 -0.070293337 0.65900004
0.034943126 -0.064999327 0.65537512
0.12876192 -0.068095244 0.65000004
0.1347589 -0.065989845 0.65502793
0.14058667 -0.067782864 0.65900004
0.036683131 -0.055281419 0.6551801
0.040982857 -0.052160002 0.65200007
0.12902604 -0.052105397 0.65133333
0.13266376 -0.054662801 0.65225005
0.037102468 -0.045125406 0.65622926
0.041994765 -0.04385845 0.65206248
0.12742607 -0.044778641 0.65174991
0.1330367 -0.04525508 0.65537143
0.038747616 -0.036797978 0.65625
0.043313708 -0.034822904 0.65358973
0.12720083 -0.03507667 0.65190625
0.13066667 -0.038578417 0.65333343
0.046448912 -0.025999522 0.65475005
0.051380955 -0.023523809 0.65000004
0.12548618 -0.02931165 0.65376937
0.067327492 -0.17366266 0.66776669
0.075428717 -0.17488492 0.66701841
0.084668517 -0.17421578 0.66684204
0.095001549 -0.174459 0.66792697
0.1005181 -0.17516446 0.6680001
0.057860006 -0.16086596 0.66762507
0.065656744 -0.16472597 0.6661154
0.075379163 -0.16492443 0.66404837
0.084841572 -0.16504736 0.66460723
0.09486381 -0.16482779 0.66589671
0.10362488 -0.16421078 0.66700006
0.049198732 -0.15056509 0.6680001
0.055945981 -0.15453993 0.66629779
0.064732805 -0.15521428 0.66267842
0.074154854 -0.15593868 0.66178048
0.085477017 -0.15726011 0.66200006
0.0952207 -0.15661202 0.66199994
0.10503147 -0.15486734 0.66369998
0.11217988 -0.15277347 0.66600007
0.046653271 -0.14392862 0.66581821
0.05432234 -0.1456185 0.66295826
0.061207999 -0.14810896 0.66119999
0.1076112 -0.14720702 0.66125005
0.11498275 -0.14490557 0.66382217
0.12196667 -0.14229392 0.667
0.038492121 -0.13293231 0.6675455
0.04455715 -0.13514094 0.66407144
0.050676666 -0.13881001 0.66100001
0.1175543 -0.13659431 0.66173697
0.1238658 -0.13498339 0.6639697
0.037330355 -0.12523404 0.66590005
0.042919319 -0.12608007 0.66212904
0.12590949 -0.12533759 0.66250002
0.1319785 -0.12287576 0.6654706
0.035887226 -0.11478192 0.66386366
0.040541332 -0.11809867 0.66100001
0.12801802 -0.11748365 0.66127282
0.13433686 -0.11532233 0.66666657
0.14102286 -0.11561334 0.66700006
0.032811075 -0.10507284 0.66400009
0.13446784 -0.10261715 0.66261548
0.028679321 -0.094118506 0.66707152
0.032322861 -0.095296711 0.66293353
0.13576137 -0.096178778 0.66244441
0.027987042 -0.084730096 0.66640013
0.031335969 -0.085546941 0.66185719
0.13766693 -0.083711483 0.66235304
0.14139429 -0.082516909 0.66650009
0.027716719 -0.075102255 0.66512001
0.030718977 -0.075684108 0.6613847
0.13725354 -0.078537531 0.66290009
0.14102286 -0.078769527 0.66700006
0.027909648 -0.065404728 0.66478264
0.030217143 -0.064840958 0.66100001
0.028663129 -0.055421907 0.66671443
0.031465758 -0.05465566 0.66195655
0.028729526 -0.048561525 0.66740006
0.031908203 -0.044635173 0.66300011
0.035706323 -0.034743551 0.66448498
0.040411435 -0.031571429 0.66300005
0.037383605 -0.026304178 0.66582608
0.04152146 -0.025655799 0.66176474
0.063841909 -0.18088317 0.67033339
0.087932959 -0.18072267 0.671
0.092496201 -0.18094 0.67133331
0.045733336 -0.1730158 0.67674071
0.054953437 -0.17371158 0.67135561
0.062965594 -0.17559627 0.6702258
0.087692522 -0.17830206 0.67000002
0.092842855 -0.17643332 0.67000002
0.10530468 -0.1747212 0.67082596
0.11454426 -0.17412619 0.67362213
0.12138859 -0.1721981 0.67900002
0.038800001 -0.16166666 0.67900008
0.044856641 -0.16492096 0.67581946
0.054840624 -0.16586336 0.67132711
0.061074287 -0.16896668 0.67033339
0.10747963 -0.16670799 0.67014998
0.11479296 -0.16475302 0.67296094
0.1210362 -0.16159621 0.67600006
0.038430147 -0.15417929 0.67747819
0.045293685 -0.15522859 0.67232144
0.051623281 -0.15728149 0.67011112
0.11636419 -0.15641572 0.67274183
0.12338929 -0.15466149 0.67570001
0.036607623 -0.14436525 0.67564994
0.042695586 -0.146449 0.67095453
0.11868571 -0.14931428 0.67000002
0.1253701 -0.14569622 0.67279309
0.13265681 -0.14274788 0.67736369
0.028543716 -0.13400631 0.67810005
0.034324557 -0.13551643 0.67354339
0.12849551 -0.13818151 0.67171443
0.13245292 -0.1346336 0.67222226
0.027554534 -0.12467405 0.67748392
0.032656197 -0.12487607 0.67240006
0.13369448 -0.12907429 0.67360002
0.02705704 -0.11493708 0.67566663
0.031575821 -0.11637494 0.67138469
0.13773067 -0.11276267 0.67200005
0.14186096 -0.11104953 0.67400002
0.026579043 -0.10468064 0.67267501
0.13868791 -0.10653498 0.67328566
0.14148809 -0.10555547 0.67375004
0.02457059 -0.095217012 0.67399991
0.023871038 -0.084893256 0.67441177
0.15388 -0.082093917 0.67660004
0.023236807 -0.075055696 0.67461759
0.14808667 -0.071133338 0.67900002
0.15376922 -0.074994698 0.67862046
0.019400001 -0.065960005 0.67900008
0.023544768 -0.064818077 0.6753847
0.13993524 -0.064190477 0.67400002
0.146126 -0.064239345 0.67569768
0.15339088 -0.065348655 0.67632538
0.024482634 -0.054924086 0.6758334
0.14533842 -0.055016063 0.67345291
0.15352339 -0.05491136 0.67153656
0.026485387 -0.045899637 0.67451733
0.13957389 -0.046523537 0.67314285
0.14506128 -0.046286281 0.67178875
0.152189 -0.047489971 0.67176461
0.029571429 -0.032785714 0.67500001
0.032187726 -0.03375249 0.67150003
0.03386952 -0.028757144 0.671
0.033652574 -0.17013869 0.68500006
0.040152382 -0.17097142 0.68000001
0.1254579 -0.17151068 0.68319994
0.13085715 -0.17011429 0.68700004
0.028830478 -0.16577524 0.68800002
0.034422252 -0.1650866 0.68463176
0.040152382 -0.16902858 0.68000001
0.1191619 -0.16838096 0.68000001
0.12544429 -0.16583118 0.6835683
0.13093334 -0.16628419 0.68740004
0.027970217 -0.15282771 0.68736374
0.03303434 -0.15534234 0.68448788
0.12845714 -0.15497142 0.68000001
0.1332525 -0.15282822 0.68250006
0.027964052 -0.14528088 0.68558329
0.032233212 -0.1470512 0.68206257
0.12952381 -0.14895239 0.68000001
0.13461432 -0.14812325 0.68328577
0.026093878 -0.13586476 0.68257153
0.018973971 -0.1216981 0.68700004
0.02333058 -0.12410487 0.68266672
0.019071564 -0.11508271 0.68714297
0.022194287 -0.11505939 0.68373913
0.18509418 -0.11219176 0.68755561
0.1906743 -0.11335619 0.68800002
0.019241143 -0.10550305 0.68720007
0.021916894 -0.1057611 0.68326318
0.17684831 -0.10296755 0.68730444
0.18396421 -0.10534143 0.68719578
0.01854465 -0.094420172 0.68399996
0.020723812 -0.094552383 0.68000001
0.16749792 -0.093280762 0.68539995
0.17503496 -0.095319323 0.68586302
0.18205422 -0.096169181 0.68714303
0.017224818 -0.084955387 0.68528575
0.020723812 -0.085485719 0.68000001
0.15842201 -0.082166776 0.68111116
0.16538529 -0.085073553 0.68387252
0.17312902 -0.086411983 0.68370587
0.016400332 -0.074680634 0.68550014
0.02072381 -0.073180959 0.68000001
0.14830478 -0.072533339 0.68000001
0.15859471 -0.076850794 0.67999995
0.16427645 -0.077479064 0.68266666
0.17132571 -0.079474285 0.68400002
0.016286526 -0.06496758 0.6856001
0.020744128 -0.06482286 0.68066669
0.01825325 -0.054990485 0.68669569
0.020832654 -0.05468354 0.68357152
0.018105716 -0.049301587 0.68716669
0.021535715 -0.048945718 0.68525004
0.13287176 -0.17146033 0.69066668
0.025556194 -0.16282436 0.69339305
0.13461249 -0.16577725 0.69377279
0.024844794 -0.15572192 0.69445467
0.018879239 -0.14146134 0.69800001
0.023728611 -0.14461786 0.69528008
0.19746079 -0.14202754 0.69745457
0.20127857 -0.14149335 0.69749999
0.018902434 -0.13807936 0.69777781
0.022851158 -0.13722287 0.69414294
0.14565624 -0.13337776 0.69771999
0.15351589 -0.13349576 0.69615
0.16131556 -0.13073651 0.69800007
0.19662139 -0.1354 0.69690919
0.20101105 -0.1353343 0.69657153
0.14597319 -0.12597828 0.69795996
0.15524566 -0.12630793 0.69748783
0.16099648 -0.12606449 0.69771427
0.18891048 -0.12141144 0.69033337
0.19513273 -0.12511776 0.69385731
0.20065673 -0.12728825 0.69611114
0.015525203 -0.11375913 0.69507694
0.18828414 -0.11529066 0.69011778
0.19242838 -0.11553717 0.69030458
0.0093066674 -0.10237335 0.69800007
0.01446541 -0.10463766 0.6948086
0.17348573 -0.10317144 0.69000006
0.18904915 -0.10517257 0.69020003
0.19177991 -0.10772953 0.69066668
0.0075767459 -0.094140172 0.69691676
0.013586324 -0.095130548 0.69215393
0.0066589392 -0.084513851 0.69577146
0.012043148 -0.085170627 0.69076943
0.0056069144 -0.075656272 0.69550014
0.011485206 -0.075928763 0.6904667
0.0080894176 -0.066206142 0.69516671
0.011661524 -0.064502567 0.69184989
0.0092533324 -0.059485711 0.69400001
0.013613181 -0.056530211 0.69275999
0.15739755 -0.17184654 0.70800006
0.16047999 -0.17194286 0.708
0.17744952 -0.17317906 0.70800012
0.184356 -0.17129639 0.70700002
0.19041525 -0.17097144 0.70400006
0.020463493 -0.16059747 0.70066667
0.13744745 -0.16223671 0.70181829
0.14544223 -0.16164172 0.70588881
0.15486887 -0.16519305 0.70770478
0.1615289 -0.16767238 0.70800006
0.17733714 -0.16992 0.708
0.18657506 -0.16601871 0.70711929
0.19355531 -0.16429479 0.70612139
0.018324543 -0.15467416 0.70661539
0.020701591 -0.15490717 0.70273346
0.14626376 -0.15465796 0.70602649
0.15328225 -0.15530255 0.70628148
0.18812573 -0.15913142 0.708
0.1946364 -0.15511121 0.70337737
0.20112023 -0.15238406 0.70100009
0.017529367 -0.14526588 0.70341676
0.020789841 -0.14672212 0.70166671
0.14550163 -0.14472574 0.70277357
0.15150477 -0.14397717 0.70163649
0.19506305 -0.14630277 0.70170289
0.20212001 -0.1472325 0.70082366
0.017333334 -0.13733335 0.70000005
0.14436884 -0.135407 0.70023996
0.15066668 -0.13866667 0.70000005
0.19360954 -0.13886477 0.70100003
0.0080914292 -0.12002286 0.70800006
0.14593415 -0.12688355 0.70014292
0.15384617 -0.12358978 0.69999999
0.16266668 -0.12666668 0.70000005
0.0050906502 -0.11421864 0.70527279
0.01163347 -0.11471498 0.7008571
-0.0029655236 -0.10402961 0.70745009
0.0045273858 -0.10507118 0.70308769
0.010666667 -0.10933334 0.70000005
-0.0045196195 -0.095202334 0.70682216
0.0024620835 -0.095334753 0.70215631
-0.0025319578 -0.085074499 0.7033335
0.0015569841 -0.085711434 0.70125008
-0.0017803175 -0.078333974 0.70100009
0.0030011907 -0.072705477 0.70037508
0.0033352382 -0.069382861 0.70050001
0.16606714 -0.17215629 0.71055013
0.17323177 -0.17289343 0.71029174
0.15903348 -0.1627045 0.71014291
0.16590495 -0.16459607 0.71365917
0.17507918 -0.16544452 0.713678
0.18300335 -0.16354428 0.71218747
0.016242286 -0.153488 0.71060002
0.15913019 -0.15913019 0.71000004
0.1635835 -0.15949142 0.71566671
0.18644992 -0.15624012 0.71310818
0.19099796 -0.15272969 0.71116674
0.01625143 -0.14897142 0.71100003
0.18888611 -0.14872229 0.71240002
0.19163144 -0.14829428 0.71100003
-0.0032360177 -0.13203031 0.71863633
0.0012581686 -0.13326228 0.71669239
-0.010956191 -0.12120286 0.71900004
-0.0048843804 -0.12423678 0.71654987
0.0036933769 -0.12456385 0.71168184
-0.011104047 -0.11479761 0.71749997
-0.005445159 -0.11485071 0.71356237
0.00077278918 -0.11768111 0.71014291
-0.01091962 -0.10537753 0.71660006
-0.0070724511 -0.10576453 0.71085203
-0.0094666667 -0.097371429 0.71000004
0.16868572 -0.16045715 0.72000003
0.17074287 -0.16045715 0.72000003
-0.011786669 -0.15345779 0.7280001
-0.00832 -0.15114668 0.72800004
-0.01233581 -0.14456032 0.72764999
-0.0062222388 -0.14448343 0.72532487
0.00045841275 -0.14073271 0.72200006
-0.013884643 -0.13484386 0.72653127
-0.0063812174 -0.13560171 0.72172219
0.0006857143 -0.13851428 0.72000003
-0.012644954 -0.12520783 0.72155017
-0.0085780956 -0.1276319 0.72050011
-0.01296127 -0.11649271 0.72044456
-0.032331429 -0.16025144 0.73800009
-0.02500041 -0.16164178 0.73792863
-0.019125715 -0.16139558 0.73466671
-0.03331776 -0.15619154 0.73817414
-0.025239104 -0.15481058 0.73600006
-0.016369222 -0.15477878 0.73205251
-0.0086209532 -0.15350859 0.73000002
-0.023936393 -0.14587836 0.73512125
-0.017176066 -0.14504653 0.73103333
-0.020971429 -0.13980952 0.73400003
-0.018316826 -0.13818382 0.73033333
-0.041141331 -0.15463239 0.74480003
-0.036806352 -0.15327886 0.74195838
-0.033999171 -0.14843825 0.74175
-0.029365717 -0.1471101 0.74120009
