# .PCD v0.7 - Point Cloud Data file format
VERSION 0.7
FIELDS x y z
SIZE 4 4 4
TYPE F F F
COUNT 1 1 1
WIDTH 1407
HEIGHT 1
VIEWPOINT 0 0 0 1 0 0 0
POINTS 1407
DATA ascii
0.11833682 -0.01486633 0.73347056
0.12073448 -0.014479619 0.73110002
0.11803674 -0.0058020856 0.73442858
0.12068191 -0.0072827511 0.73200005
0.11889526 0.0048867855 0.73275
0.12124322 0.0056760446 0.73100007
0.11837634 0.014422056 0.73389477
0.12122506 0.016615385 0.73153853
0.1188381 0.021670476 0.73400003
0.12237551 0.025315808 0.73343992
0.12436432 0.035393041 0.73493749
0.12697963 0.044869866 0.73547077
0.13070476 0.048666667 0.73000002
0.12812251 0.053900249 0.73747373
0.13210563 0.055697694 0.73329175
0.23220953 0.059442855 0.73000002
0.12950096 0.061935242 0.73900002
0.13524818 0.064364761 0.73544747
0.14063048 0.069619045 0.73100001
0.23385397 0.063793927 0.73106241
0.13839324 0.071773335 0.73722225
0.1439918 0.076071516 0.73337144
0.15017143 0.079257146 0.73000002
0.21646667 0.079347625 0.73083341
0.1471362 0.082254022 0.73371428
0.1546673 0.08582478 0.73320001
0.16178 0.08819738 0.73062497
0.19883808 0.08899048 0.73000002
0.20588939 0.088204607 0.73116672
0.21669422 0.082953632 0.73229408
0.2205981 0.082375243 0.73300004
0.15733811 0.095303588 0.7371251
0.16499802 0.094891816 0.73318881
0.17482534 0.09508504 0.7318334
0.18492967 0.095736519 0.73142868
0.19506292 0.095053993 0.73224401
0.2040088 0.095162489 0.73583347
0.056794047 0.10919215 0.73849994
0.06541805 0.10838947 0.73676199
0.075171255 0.10752311 0.73442113
0.08470986 0.10715193 0.73511755
0.094969213 0.10610748 0.73118752
0.10524832 0.10494546 0.73286855
0.11228156 0.10517213 0.73272723
0.13279048 0.10428571 0.73000002
0.15723909 0.10567895 0.73706901
0.16477072 0.10502328 0.73412716
0.1747416 0.1052403 0.73287499
0.18518263 0.10420546 0.73220009
0.19493684 0.10544135 0.73314273
0.20494762 0.1055764 0.73831731
0.21114287 0.10909048 0.73900002
0.23888639 0.10875239 0.73200005
0.2451587 0.10748199 0.73640752
0.2551136 0.10858142 0.73793751
0.26328015 0.10885695 0.73421049
0.046576403 0.11631723 0.73860729
0.054748859 0.11502144 0.73587513
0.064929664 0.1148771 0.73210001
0.07230477 0.11193334 0.73000002
0.16544357 0.11096192 0.73342866
0.17234699 0.11125936 0.73166674
0.18910475 0.1112381 0.73000002
0.19598134 0.11193498 0.73213333
0.20313969 0.11137429 0.73550004
0.2453078 0.11108985 0.73208332
0.25533468 0.1119292 0.73454177
0.26407546 0.11141981 0.73120004
0.046695307 0.12499646 0.73787117
0.054592196 0.12458929 0.73493868
0.064437747 0.12489989 0.73200005
0.071470477 0.1282019 0.73000002
0.046396319 0.13492817 0.73879433
0.054805852 0.13495202 0.73569804
0.064746633 0.13497229 0.7330001
0.072166562 0.13552573 0.73016655
0.028236633 0.146703 0.73838466
0.035350133 0.14512625 0.73690718
0.044838469 0.14469072 0.73443633
0.054349411 0.14475448 0.73235846
0.06434124 0.14234908 0.73130757
0.071377784 0.1409016 0.73000002
0.028152382 0.15061525 0.73900002
0.035898879 0.15088607 0.73781824
0.044905856 0.15205579 0.73671442
0.055608615 0.15291455 0.73473924
0.065168999 0.15752444 0.73583335
0.073858105 0.15829131 0.73264289
0.083428584 0.15920953 0.73000002
0.066860534 0.16394171 0.73865223
0.075074486 0.16509669 0.73522228
0.084959708 0.16506678 0.73177773
0.091960713 0.16723372 0.73012495
0.06897334 0.17313714 0.73900002
0.075340167 0.17472908 0.73716003
0.085129306 0.17503315 0.73440802
0.094358623 0.17546165 0.73202699
0.10112708 0.17821471 0.73014289
0.076539285 0.18175881 0.73899996
0.085430533 0.18481764 0.73677552
0.094988756 0.18465352 0.73406237
0.1028727 0.18564916 0.73116666
0.087457813 0.1931982 0.73820013
0.095104307 0.19523886 0.73678863
0.10530431 0.19510464 0.73311311
0.11320826 0.1968597 0.73076183
0.095256388 0.20176445 0.73833334
0.10534506 0.20258625 0.73536855
0.11398961 0.20333342 0.73283333
0.12665756 0.20523514 0.73014277
0.13378158 0.20817548 0.73077774
0.099237144 0.21888477 0.73900002
0.10616083 0.21810697 0.7382223
0.11511625 0.21710192 0.73537201
0.12506071 0.21703401 0.73302132
0.13441981 0.21454427 0.73237979
0.1449239 0.21451004 0.73348647
0.15204573 0.21442409 0.73352951
0.16577567 0.21490584 0.73000002
0.17102857 0.21413334 0.73000002
0.099350862 0.22389142 0.73879999
0.10544036 0.22492798 0.73698103
0.11500163 0.22507119 0.73194546
0.12401999 0.2250399 0.73002672
0.13139999 0.22108571 0.73000002
0.1059775 0.23467366 0.7372002
0.11471958 0.23495416 0.73395908
0.12422961 0.23541003 0.73038268
0.13070476 0.23916191 0.73000002
0.099940956 0.24914859 0.73900002
0.10649868 0.24560168 0.73786134
0.11484922 0.24509086 0.73430783
0.12450448 0.24491493 0.73085958
0.13229388 0.24651155 0.72999996
0.09962815 0.25462267 0.73899996
0.10532735 0.2546345 0.73712021
0.11450042 0.25481737 0.73426074
0.1246887 0.25496146 0.7314465
0.13260087 0.25338265 0.72999984
0.10596883 0.2638357 0.73797244
0.1151218 0.26482949 0.73612779
0.12491325 0.26518819 0.73275018
0.13251846 0.26576239 0.72999978
0.10979429 0.27096665 0.73900002
0.11657407 0.27345759 0.73812509
0.12486447 0.27469021 0.734465
0.13465802 0.27540806 0.73189354
0.14196047 0.27766368 0.73008335
0.12663208 0.284098 0.73810732
0.13505824 0.28510833 0.73534685
0.14502063 0.28539446 0.73161381
0.15129861 0.2877619 0.73022223
0.12879714 0.29208097 0.73900002
0.13658784 0.29373339 0.73762512
0.14470808 0.29451981 0.73354757
0.15447675 0.29489174 0.73115385
0.16295415 0.2978619 0.73016661
0.13888508 0.3016997 0.73900002
0.14536837 0.30362594 0.73841953
0.15461557 0.30488113 0.73513472
0.16485636 0.30566168 0.73204637
0.14900573 0.31066287 0.73800004
0.15508188 0.31298009 0.73813051
0.16504665 0.31523946 0.73642242
0.1750184 0.31571463 0.73330539
0.18371186 0.31697369 0.7311818
0.19119048 0.31911427 0.73000002
0.12738954 0.32727143 0.73899996
0.1355405 0.32518566 0.73806912
0.14465418 0.32354221 0.73507899
0.15508422 0.32298023 0.73487169
0.16461258 0.32307845 0.73558986
0.17471208 0.32311106 0.73444468
0.18453002 0.32304391 0.73376667
0.19371097 0.32204208 0.73033333
0.20161906 0.32259047 0.73000002
0.11997144 -0.071982868 0.74100006
0.12138287 -0.071982868 0.74100006
0.11947087 -0.038411815 0.74140006
0.11914667 0.026957463 0.74466676
0.12058288 0.027470207 0.74228585
0.11984 0.039946668 0.74900001
0.12097824 0.035375513 0.74285728
0.11984 0.042086668 0.74900001
0.12241495 0.045661792 0.74352002
0.12404562 0.055129007 0.74445456
0.12766413 0.063068897 0.74541682
0.13283372 0.067408375 0.74350011
0.13662891 0.075372212 0.74348164
0.14114286 0.078334294 0.74100006
0.1389035 0.081540957 0.74666667
0.1446459 0.085155368 0.74623811
0.15058018 0.08802744 0.74300003
0.049022861 0.099466674 0.74600005
0.055481635 0.099580966 0.74685729
0.06189429 0.099600002 0.74700004
0.073493347 0.098933339 0.74200004
0.14822115 0.095489994 0.74823797
0.15256587 0.095277488 0.74427587
0.20896192 0.096715719 0.74125004
0.21524698 0.095990352 0.74762958
0.22113334 0.092733338 0.74900001
0.017705558 0.10861588 0.7486667
0.025736447 0.10712409 0.74656677
0.035840582 0.10640685 0.74600011
0.045425307 0.10504421 0.74530619
0.055137072 0.10468546 0.74471742
0.064861275 0.10346784 0.74248648
0.073871657 0.10260885 0.7414782
0.08342769 0.10300718 0.74238473
0.10797429 0.10162286 0.74100006
0.14745051 0.10551099 0.74781483
0.15242448 0.10462096 0.7432667
0.20889144 0.10091715 0.74100006
0.21458936 0.10410573 0.74555159
0.22160891 0.10652444 0.74900001
0.24420492 0.10663348 0.74357152
0.25559402 0.10626096 0.7423079
0.26296073 0.1063512 0.74325007
0.27728051 0.10863431 0.74716675
0.0095714293 0.11750722 0.74842864
0.015841741 0.11547331 0.74746817
0.025531396 0.11491969 0.74485713
0.035469305 0.11483281 0.74152833
0.04360307 0.11336798 0.74099994
0.05128191 0.11056191 0.74100006
0.15314001 0.11009143 0.74100006
0.20748001 0.11150286 0.74100006
0.27660498 0.11194542 0.74393344
0.28084573 0.11205588 0.7446667
0.0095638102 0.1237279 0.74785721
0.015646804 0.12516992 0.74675506
0.025527352 0.12483566 0.74475515
0.035306443 0.12509114 0.74146938
0.042186037 0.12577398 0.74100012
-0.012126666 0.13981333 0.74900001
-0.0049246759 0.13922668 0.74863642
0.0064309528 0.13666455 0.74611109
0.015569982 0.13528132 0.74698019
0.025620921 0.13491961 0.74497998
0.035147674 0.13527317 0.74155772
0.042060576 0.13587351 0.74100018
-0.01188889 0.14171556 0.74900001
-0.0051923199 0.14360406 0.74764514
0.0048988322 0.1449866 0.74583036
0.015696632 0.14480494 0.74485409
0.024450475 0.14431918 0.74266672
0.033410795 0.14140984 0.74116677
0.0073516802 0.15306166 0.74842095
0.015275178 0.15251963 0.74739999
0.025861906 0.15444815 0.74668175
0.035233304 0.15662222 0.7457419
0.045407932 0.1571582 0.74224007
0.054138672 0.1579711 0.74115014
0.060691435 0.15949145 0.74100006
0.036284942 0.16471711 0.74855006
0.045203105 0.16483152 0.74473912
0.055294558 0.16494426 0.74182248
0.062786974 0.16594587 0.74107993
0.039376002 0.17234133 0.74900001
0.046191111 0.17480229 0.74783343
0.055292573 0.17499822 0.74479169
0.064494289 0.17531778 0.74159086
0.071041912 0.17878097 0.74100006
0.048149999 0.18418269 0.74899983
0.055359311 0.18522961 0.74729788
0.065292314 0.18501949 0.7434091
0.074197315 0.18584849 0.74123651
0.080451444 0.18772 0.74100006
0.057383638 0.19361438 0.74890894
0.065529265 0.19487508 0.74753499
0.075153776 0.19512446 0.74300003
0.083137974 0.19579524 0.74146664
0.069431111 0.20163557 0.74900001
0.075614855 0.20322441 0.74567991
0.084462389 0.20250736 0.74216676
0.090331435 0.20324573 0.74100006
0.10663428 0.2080324 0.74633336
0.11532 0.20930001 0.74750006
0.069335997 0.21856533 0.74900001
0.075801961 0.21719272 0.74853331
0.085332572 0.21540739 0.7454707
0.09473674 0.21511251 0.74371427
0.1046297 0.21438245 0.74355
0.11521221 0.21288377 0.74579304
0.12496002 0.2135983 0.74551624
0.13002668 0.21341334 0.74200004
0.068918973 0.22398667 0.74900001
0.075492047 0.22506386 0.74783683
0.085001379 0.22481602 0.74329174
0.0941322 0.22469448 0.74138618
0.06858974 0.23726563 0.74900001
0.075578578 0.23529768 0.74867362
0.085056126 0.23475598 0.7440418
0.094779365 0.23486063 0.74143398
0.10126998 0.23641428 0.74100012
0.06848 0.24110667 0.74900001
0.076084875 0.24478258 0.74885374
0.085121922 0.24474573 0.74487507
0.094640858 0.24505164 0.74182987
0.10199427 0.24439999 0.74100012
0.076469332 0.25515935 0.74900019
0.085251726 0.25501215 0.74678719
0.094528034 0.25484169 0.74214882
0.078262851 0.26454476 0.74899983
0.085385859 0.26491362 0.74716336
0.094807133 0.26505286 0.74270004
0.1019201 0.26713702 0.74135303
0.079893336 0.27106667 0.74900001
0.086345978 0.27297813 0.74872714
0.095391244 0.27509663 0.74654299
0.10482194 0.27538228 0.74300009
0.11314401 0.27718535 0.74139988
0.098674171 0.28425848 0.74874991
0.10518023 0.28519684 0.74623811
0.11515313 0.2850354 0.74268079
0.12282677 0.28730354 0.74120009
0.099866666 0.29175335 0.74900001
0.10625762 0.2943131 0.74825007
0.11518417 0.29525077 0.74595451
0.12462184 0.29532751 0.74184781
0.13321452 0.29766029 0.74106264
0.10949666 0.30209666 0.74900001
0.115197 0.30412981 0.7473948
0.12477076 0.30471066 0.74508113
0.13467886 0.30521137 0.74168748
0.14443621 0.3082796 0.74100012
0.12935112 0.31386667 0.74900001
0.13525142 0.31491309 0.74535149
0.14523652 0.31544983 0.7425102
0.15478671 0.31780672 0.74100012
0.16090287 0.3189829 0.74100006
0.089166671 0.32599333 0.74900001
0.095411718 0.32640901 0.74859995
0.10531193 0.32504168 0.74661821
0.11518645 0.32440159 0.7434479
0.12493184 0.32337469 0.74303663
0.13471009 0.32182539 0.74372727
0.14448605 0.3212761 0.74250007
0.15400782 0.3210021 0.74110013
0.16889334 0.32365337 0.74200004
0.17078286 0.32321715 0.74100006
0.095794588 0.33123636 0.74807692
0.1050264 0.3307015 0.745143
0.11053714 0.33019429 0.74400002
0.11856644 0.036411669 0.75337505
0.120224 0.035776384 0.75140005
0.11888763 0.040106669 0.75200003
0.1273143 0.065091431 0.75100005
0.13124572 0.068305716 0.75100005
0.12925714 0.071809523 0.75400007
0.13315384 0.073844261 0.75405884
0.13857144 0.082857147 0.75000006
0.14419185 0.086952291 0.75244445
0.01807143 0.099754296 0.75900006
0.024095241 0.099754296 0.75900006
0.030360002 0.099754296 0.75900006
0.14469026 0.094667464 0.75400007
0.21714285 0.092857152 0.75000006
0.22221148 0.096910492 0.75057149
-0.010692953 0.10865982 0.75860006
-0.0045722229 0.10743 0.75791669
0.0044256449 0.10599469 0.75651217
0.014205807 0.10483252 0.75499982
0.024040211 0.10286244 0.75551856
0.033898193 0.10212915 0.75255001
0.040000003 0.10142858 0.75000006
0.13929905 0.10571022 0.75728577
0.14293644 0.10376332 0.7535184
0.22191462 0.10177873 0.75083339
0.24047622 0.10809525 0.75000012
0.26196954 0.10593969 0.75500011
0.27476931 0.10678351 0.75591671
-0.010638443 0.11596901 0.7584545
-0.0050383685 0.11510739 0.75540447
0.0042129364 0.11473106 0.75352067
0.011024219 0.11126641 0.7502858
0.24165641 0.11109334 0.75160003
0.27359429 0.11058667 0.75400001
-0.035468191 0.12693372 0.759
-0.010838415 0.12500066 0.75866669
-0.0049487124 0.12505068 0.75524354
0.004019917 0.1250387 0.75341302
0.010000001 0.12785715 0.75000006
-0.033966102 0.13593248 0.75879997
-0.024984954 0.13921906 0.75820005
-0.011694182 0.13777693 0.75700009
-0.0051078 0.13501161 0.75689191
0.0033143519 0.13337451 0.75403434
-0.033030242 0.14230371 0.75799996
-0.024478469 0.14291142 0.75590318
-0.015526574 0.14404437 0.75403231
-0.004571429 0.14828573 0.75000006
-0.0020205716 0.15259506 0.75720006
0.0032883955 0.15626383 0.75340736
0.015246172 0.15650849 0.75216001
0.023342419 0.15801641 0.75153852
0.0057944166 0.16398278 0.75472409
0.014279799 0.16506475 0.75438273
0.024387058 0.1650032 0.75326526
0.030959051 0.16575176 0.75016677
0.0078026666 0.17382915 0.75859994
0.014520823 0.17502807 0.75727272
0.024624631 0.17497294 0.75459981
0.03403784 0.17511256 0.75231123
0.041250002 0.17732145 0.75000006
0.014342126 0.18201216 0.75884616
0.024977742 0.18405899 0.7574572
0.03462626 0.18512318 0.75414872
0.04287833 0.18533961 0.75118756
0.028914288 0.1908343 0.75900006
0.035629597 0.19407478 0.75692874
0.044566441 0.19481823 0.75480938
0.053368002 0.19559771 0.75119996
0.058011428 0.20053335 0.75200003
0.065819055 0.20388789 0.75428569
0.073130287 0.20812586 0.75286674
0.084840827 0.20930369 0.75485724
0.095769532 0.20896618 0.75544453
0.10286696 0.20943184 0.75457156
0.046088532 0.21734306 0.75807995
0.054938722 0.21551841 0.75559634
0.064546347 0.21461025 0.75400001
0.074057624 0.21242477 0.75082147
0.084789529 0.21114266 0.7528125
0.094994508 0.21157974 0.75564712
0.10441143 0.21169831 0.75330764
0.1116254 0.21180445 0.75133342
0.045841068 0.22443631 0.75702935
0.054735199 0.22533064 0.75410628
0.063602328 0.22479999 0.75102448
0.047959242 0.23301049 0.75839996
0.054659713 0.23520395 0.75523919
0.063874282 0.23422214 0.75106978
0.070000008 0.23142859 0.75000012
0.047867049 0.24665615 0.75846666
0.054751679 0.24506474 0.75524992
0.06418319 0.24544485 0.75257772
0.071688317 0.24701302 0.75000012
0.047195867 0.25425515 0.75786954
0.054509055 0.25479904 0.75521255
0.064732566 0.25528553 0.75348932
0.071047626 0.25400004 0.75000012
0.047997717 0.26138517 0.75900006
0.055481695 0.26427767 0.75745726
0.064616323 0.264898 0.75467414
0.073012203 0.26478133 0.75113338
0.058551431 0.27034861 0.75900006
0.065931231 0.27383998 0.75762075
0.074462198 0.27463239 0.75386035
0.083698869 0.27677917 0.75085711
0.090714291 0.27857146 0.75000006
0.06939429 0.28046861 0.75900006
0.075575076 0.28429639 0.75700003
0.084613472 0.28500333 0.75438631
0.093508266 0.28511879 0.75165725
0.077345714 0.29058859 0.75900006
0.085592389 0.29458469 0.75694728
0.094483137 0.29448402 0.75290906
0.10204641 0.29717198 0.75072736
0.088454105 0.30308673 0.75879997
0.095136262 0.3044557 0.75595111
0.10450482 0.30480772 0.75323683
0.11043049 0.30770573 0.75050002
0.06939429 0.31950289 0.75900006
0.076175079 0.31879002 0.75816667
0.085385658 0.31872922 0.75676471
0.097057559 0.31678998 0.75815785
0.10519439 0.31575182 0.75694335
0.11509202 0.31579536 0.75530946
0.12454931 0.31560785 0.7535277
0.13124345 0.31716308 0.75140005
0.067105249 0.32637012 0.759
0.074883208 0.32474807 0.75607413
0.084437996 0.32427847 0.75317997
0.094723925 0.32157746 0.75282359
0.10374423 0.32054448 0.75200003
0.11480109 0.32071391 0.75335717
0.12488586 0.32083583 0.75364286
0.067701057 0.33409545 0.75878936
0.074652582 0.33349329 0.75494421
0.083946943 0.33244851 0.75186223
0.090357147 0.33178574 0.75000006
0.14060381 0.089870483 0.76100004
-0.022947937 0.099359691 0.76900005
-0.01410734 0.098316967 0.76770598
-0.005726032 0.098555729 0.7675001
0.0056749205 0.097692713 0.76616669
0.014287922 0.095551237 0.76439458
0.023962447 0.09702196 0.76133323
0.13897108 0.096787624 0.76640004
0.1418056 0.095426045 0.76227778
-0.041727938 0.10834478 0.76866674
-0.034975287 0.10606193 0.76741493
-0.024691831 0.10503057 0.76522911
-0.014783643 0.10436085 0.76284766
-0.0055647623 0.10244985 0.76204169
0.0040613338 0.1009482 0.76146668
0.012507857 0.10061 0.76137507
0.027540954 0.10001715 0.76100004
0.12843768 0.10643663 0.76433349
0.13496839 0.104774 0.76234198
0.14114858 0.10054414 0.76133335
0.2352379 0.10512891 0.76431584
0.24105714 0.10372762 0.76700002
0.25735366 0.10605481 0.76622224
0.26391265 0.10422274 0.76493341
0.27349114 0.10700985 0.76783341
0.28196669 0.1039981 0.76900005
-0.04304374 0.11531826 0.76744461
-0.034936987 0.11498509 0.76416349
-0.024665738 0.11461252 0.76167333
-0.015601456 0.11451238 0.76099986
-0.043002814 0.12472982 0.76679999
-0.034475852 0.12360314 0.7615881
-0.024676235 0.12482803 0.76202023
-0.015949497 0.12469257 0.76119977
-0.041499048 0.13389905 0.76563644
-0.03504042 0.13427101 0.76141924
-0.024577858 0.13438919 0.76209277
-0.01488635 0.13474375 0.76119989
-0.0086971428 0.13408095 0.76100004
-0.040906668 0.14463696 0.76700002
-0.036034435 0.14592884 0.76275992
-0.02432508 0.14871588 0.76233333
-0.013628191 0.1493402 0.76120007
-0.033919577 0.15494868 0.76683348
-0.024934677 0.1553476 0.76693189
-0.01458177 0.15527067 0.76540494
-0.0055719819 0.15582548 0.76180613
-0.034114338 0.16474593 0.76625019
-0.024160281 0.16434833 0.76876503
-0.014622117 0.16519916 0.76751024
-0.005153358 0.16501249 0.76387179
0.0014497619 0.1668686 0.76137501
-0.034094699 0.17497541 0.76871437
-0.012353929 0.17339846 0.76862502
-0.0051105712 0.17509894 0.7660501
0.003465767 0.17582311 0.76216638
-0.034108028 0.18142124 0.76900011
-0.010253333 0.18016572 0.76900005
-0.0050195386 0.18480097 0.7682575
0.0043577324 0.18504408 0.76364273
0.014697653 0.18609697 0.76149982
0.022401731 0.18870166 0.76100016
-0.0048825401 0.19041906 0.76900005
0.0059761042 0.19216244 0.76745462
0.014670576 0.19418029 0.76436836
0.024751311 0.19515885 0.76212794
0.0321723 0.19725369 0.76145458
0.016112382 0.20897272 0.76900005
0.024963588 0.20728828 0.76829422
0.035616349 0.2075035 0.76583332
0.04504386 0.20618586 0.76468289
0.056114919 0.2081759 0.764
0.063154295 0.20780426 0.76292306
0.0087885717 0.21751715 0.76900005
0.014622042 0.21499862 0.76785737
0.024851393 0.21485679 0.76509076
0.034752421 0.21473806 0.76215988
0.044154901 0.21301116 0.76125789
0.053895935 0.21083987 0.76100016
0.063795052 0.21023622 0.76120007
0.015765151 0.22474334 0.76764888
0.024806691 0.22500674 0.76420009
0.034825187 0.22492397 0.76183659
0.041377317 0.22599399 0.76100016
0.017482501 0.23404963 0.76887506
0.024751389 0.23512949 0.76641315
0.035077166 0.23510143 0.7631554
0.043810796 0.23548429 0.76105535
0.017439483 0.24562147 0.76881826
0.024725938 0.24513547 0.76641995
0.03469348 0.24503222 0.76256603
0.043848101 0.24424471 0.76099986
0.050733335 0.24207048 0.76100004
0.016879104 0.25311521 0.76864713
0.025029205 0.25484648 0.76661927
0.03505056 0.25539339 0.76267368
0.042558014 0.25552204 0.76099992
0.026514655 0.26460296 0.76790339
0.034961574 0.26515973 0.76487815
0.044589024 0.26585093 0.76159495
0.051768709 0.26836902 0.7610001
0.028004048 0.27217454 0.76875007
0.035416886 0.27445689 0.76786506
0.045094345 0.27556318 0.76577789
0.055170134 0.27514288 0.76226294
0.062998541 0.27786258 0.7610001
0.04599417 0.28391811 0.76845485
0.055390835 0.28458056 0.76533347
0.065096751 0.28513664 0.76190448
0.071647905 0.28804109 0.7610001
0.049069528 0.29075527 0.76900005
0.055812962 0.29374692 0.76777804
0.065673307 0.29514119 0.76437771
0.07515619 0.29540056 0.76110506
0.081898101 0.29860193 0.76100004
0.058004577 0.30144802 0.76900005
0.06517607 0.30354559 0.76726681
0.075264655 0.30468738 0.76313037
0.084115438 0.30539021 0.76139981
0.04623339 0.31907281 0.76841187
0.055523407 0.31802225 0.76714301
0.065538511 0.31693095 0.76507711
0.074337378 0.31498182 0.76498055
0.084869713 0.31490338 0.76304168
0.094382472 0.31519797 0.76164681
0.10001715 0.3159962 0.76100004
0.036816731 0.32527697 0.76837516
0.045164872 0.32501805 0.76594007
0.05521398 0.32476172 0.76287031
0.063626595 0.32351789 0.76103562
0.037633542 0.33462885 0.76891309
0.045286328 0.33528987 0.7670002
0.055314615 0.33520547 0.76297814
0.062948935 0.33537602 0.76107681
0.039548572 0.34202194 0.76900005
0.044980813 0.34142804 0.76753855
0.053183809 0.34097144 0.76499999
-0.042520825 0.0983679 0.77742869
-0.035146963 0.098388292 0.7763077
-0.025188792 0.097059131 0.77434617
-0.016051428 0.096025988 0.77236366
-0.0048254551 0.096844688 0.77463639
0.003541461 0.094212942 0.77530015
0.010306668 0.092758104 0.77300012
0.13804571 0.096925713 0.77100003
0.26874858 0.099862859 0.77100003
0.27021715 0.099862859 0.77100003
-0.050550856 0.10760534 0.77600002
-0.045002922 0.10473578 0.77388901
-0.035601906 0.10091698 0.77233344
-0.029371429 0.10133143 0.77100003
0.13693143 0.10012191 0.77300006
0.2375093 0.1025281 0.77450001
0.24520753 0.10225804 0.7745263
0.25725144 0.1037343 0.77250004
0.26480421 0.10232127 0.77406669
0.2742013 0.10404456 0.77196008
0.28049713 0.10426857 0.77100003
-0.051634669 0.11501028 0.77560008
-0.047652699 0.11442211 0.77213341
-0.051312651 0.12511131 0.77600008
-0.047648512 0.12529576 0.77206671
-0.050978467 0.13427284 0.77661538
-0.045829426 0.13555053 0.77265525
-0.050384767 0.14374478 0.77800006
-0.045614824 0.14493543 0.77396882
-0.044251312 0.15488732 0.77512515
-0.038983896 0.15526806 0.77100003
-0.043699574 0.16369422 0.77645463
-0.039570715 0.16546261 0.77300006
-0.026728002 0.167564 0.77099997
-0.04103737 0.17509277 0.778
-0.035116356 0.17533097 0.77216667
-0.025172159 0.17529364 0.77251077
-0.016117219 0.17665891 0.77188474
-0.040011432 0.1837562 0.77800006
-0.034717694 0.18563533 0.77218193
-0.025108755 0.18535054 0.77535743
-0.014625103 0.18526466 0.77275562
-0.0088114291 0.18871143 0.77100003
-0.032465719 0.19186413 0.77483338
-0.024650086 0.19229898 0.7772941
-0.015371973 0.19242907 0.77371436
-0.0046446123 0.19370946 0.77257895
0.0021528206 0.19481099 0.773
0.011748573 0.19972572 0.77100009
-0.012009735 0.20893295 0.77733332
-0.0047534695 0.20890938 0.77628583
0.0044297511 0.20819177 0.77519053
0.014980336 0.20584145 0.77517653
0.024723882 0.20558855 0.77362961
0.034531776 0.20579655 0.77300006
0.053916629 0.20643595 0.77263641
-0.014698474 0.21468338 0.77693051
-0.0049986811 0.21516132 0.77492321
0.0041241408 0.21467389 0.77263051
0.01028 0.21000573 0.77100003
-0.012822859 0.22493266 0.77660602
-0.0053104344 0.22523387 0.77422231
0.0043254765 0.22550109 0.77345824
0.010935661 0.22655238 0.77122217
-0.011929439 0.23552017 0.77390915
-0.0051429938 0.23514435 0.77157152
0.00442304 0.23511982 0.77390492
0.012827388 0.23604789 0.77203453
-0.012591221 0.24471405 0.77556521
-0.0051595778 0.24542716 0.77386123
0.004420564 0.24465993 0.77377534
0.012647689 0.24477892 0.77149999
-0.011342223 0.25617588 0.77666676
-0.0051672561 0.25528499 0.77471441
0.0044208751 0.25498495 0.77379578
0.01316861 0.256006 0.77171993
0.02056 0.25993717 0.77100003
-0.013859744 0.26381329 0.77690911
-0.0050115245 0.26504001 0.7736752
0.0044158217 0.26495877 0.77279598
0.014806602 0.26487345 0.77374429
0.021640001 0.26589078 0.77214295
-0.0037473021 0.27378771 0.77640009
0.0031423809 0.27330881 0.77612507
0.015628491 0.27337179 0.77669579
0.024214888 0.27579162 0.77350008
0.031941429 0.27866143 0.77100003
0.01901778 0.28254986 0.77800006
0.025424346 0.28471607 0.77526844
0.035102673 0.28470442 0.77195013
0.043506429 0.28839073 0.77099997
0.027942648 0.29447666 0.77666664
0.035413153 0.29439366 0.77471441
0.045013387 0.29524115 0.77286857
0.052517623 0.29876739 0.77125001
0.029638097 0.30156761 0.77800006
0.035648484 0.30202007 0.77690905
0.045210443 0.30439362 0.77538717
0.053979453 0.30515039 0.77290916
0.062259044 0.30786544 0.77211118
0.008150477 0.31860957 0.77800006
0.015629318 0.31736666 0.77669561
0.025685361 0.31788459 0.77612525
0.035218921 0.3164728 0.77497685
0.045377664 0.31534898 0.7745406
0.054401007 0.31368765 0.77455038
0.063766196 0.31352794 0.77278584
0.008207473 0.32419521 0.778
0.014823651 0.32498813 0.77679199
0.025066927 0.32514691 0.77415919
0.03316018 0.32373306 0.77222723
0.016575895 0.3348766 0.77662081
0.024998814 0.33517894 0.77497935
0.03258336 0.33521396 0.77205265
0.016506478 0.34401032 0.7773
0.025096601 0.34327763 0.77514309
0.034248438 0.34230608 0.77223808
-0.052456379 0.098011814 0.78680003
-0.045187619 0.096210994 0.78173083
-0.035072278 0.095529743 0.78366667
-0.0040797461 0.094186157 0.78240013
0 0.092857145 0.78000003
0.26822287 0.098995723 0.7845
0.27377397 0.098630056 0.78588897
0.28032193 0.098937154 0.78700006
-0.060114287 0.10595143 0.78900003
-0.055085529 0.10508376 0.78463417
-0.048554286 0.10156699 0.7803334
0.24947429 0.10219429 0.78900003
0.26470724 0.1011456 0.78421432
0.27660605 0.10076508 0.7856667
0.28481412 0.10238421 0.78425002
0.2900762 0.10167619 0.78500003
-0.061408892 0.11832318 0.78633344
-0.057060957 0.11528505 0.78204358
-0.061718572 0.12418238 0.78550005
-0.056645237 0.12472586 0.78128141
-0.061617147 0.13150001 0.78900003
-0.055974819 0.13456522 0.78240746
-0.060865719 0.14652857 0.78900003
-0.055489581 0.14544095 0.78313905
-0.054234665 0.15461013 0.7821753
-0.049028579 0.1545143 0.78000009
-0.052955251 0.16482256 0.78308344
-0.047561128 0.16637602 0.78029412
-0.05229786 0.17432357 0.78724998
-0.046139363 0.17516881 0.78133351
-0.052399214 0.18270016 0.78783339
-0.045525599 0.18416168 0.78239423
-0.025782287 0.19582574 0.78240007
-0.0059817149 0.19925982 0.78420001
0.0052180961 0.19968128 0.78233337
-0.053547628 0.20774774 0.78871429
-0.044633768 0.20667082 0.78688902
-0.035152711 0.20619266 0.78629416
-0.024939328 0.20613547 0.78395021
-0.015050728 0.20598687 0.78413165
-0.0055670012 0.20448206 0.78316236
0.0044698231 0.2042644 0.78277165
0.011588573 0.20592001 0.78000003
-0.060114291 0.21340573 0.78900003
-0.054747991 0.21478996 0.7888459
-0.044690546 0.21504858 0.78548902
-0.035022259 0.21459441 0.78238124
-0.025522478 0.21480604 0.78208733
-0.019314285 0.2184 0.78000009
-0.053782992 0.22450757 0.78886187
-0.04490437 0.22500779 0.78423095
-0.03507283 0.224887 0.7835266
-0.025324507 0.22491261 0.78197974
-0.018127367 0.22555101 0.78006673
-0.051962208 0.23463298 0.78807694
-0.044842344 0.23472662 0.78281403
-0.035092466 0.23466222 0.78395021
-0.025132256 0.23506573 0.7820437
-0.01717552 0.23499733 0.78029639
-0.052114177 0.24479444 0.78874993
-0.044628892 0.24506564 0.78404015
-0.035085116 0.24483234 0.78376216
-0.02535489 0.24489522 0.78193635
-0.017569095 0.24589467 0.78045458
-0.052915938 0.25632247 0.78654552
-0.044916034 0.25499904 0.78270853
-0.035014726 0.25478247 0.78223836
-0.025495516 0.25504261 0.78244704
-0.016171489 0.25487903 0.78090334
-0.052557971 0.26399139 0.78686666
-0.04508312 0.26445994 0.78493953
-0.034895558 0.26369879 0.78244841
-0.025138535 0.26406568 0.78251368
-0.017854027 0.26402059 0.78109103
-0.047340002 0.27051428 0.78900003
-0.032311432 0.27051428 0.78900003
-0.024260411 0.27137306 0.78900009
-0.013829899 0.27496579 0.78752172
-0.006489933 0.27708492 0.7815001
0.0056164013 0.27782223 0.78044444
0.013285602 0.27752104 0.78011763
-0.010734695 0.2842547 0.78900009
-0.0054180352 0.28456628 0.78371894
0.004595418 0.28484607 0.78294623
0.014169048 0.285036 0.78086126
0.02129524 0.28921908 0.78000009
-0.01052 0.29230571 0.78900003
-0.0052484246 0.29295069 0.78653854
0.0049445555 0.29456472 0.78748649
0.015097803 0.29488078 0.7826525
0.022900781 0.29549012 0.78027278
0.0077609527 0.3019467 0.78866673
0.015100002 0.30480537 0.78600001
0.025130231 0.30488127 0.78274304
0.035097905 0.30775964 0.7808001
0.042512383 0.3088899 0.7804001
-0.013352592 0.3173407 0.78855544
-0.0049801422 0.31635597 0.78595001
0.0044247936 0.31468022 0.78324991
0.01413493 0.31412682 0.78443253
0.025134763 0.31338015 0.78263897
0.034791954 0.31190261 0.78100002
0.042505402 0.31270069 0.7802667
-0.014326351 0.32447949 0.78838444
-0.0051490213 0.32515925 0.7836318
0.0032042265 0.32513601 0.78043765
-0.044334285 0.33964574 0.78900003
-0.013137882 0.33484623 0.78899974
-0.0052566282 0.33496189 0.7847839
0.0044617052 0.33485448 0.78132576
0.011885715 0.33577147 0.78000003
-0.044334285 0.34190002 0.78900003
-0.012452244 0.34458366 0.78899986
-0.0050733085 0.34504485 0.78602564
0.0042673862 0.34453613 0.78213358
0.0117025 0.34365398 0.78018749
-0.012774287 0.3516686 0.78900003
-0.008012699 0.35126957 0.78866673
-0.013642478 0.095253535 0.79570019
-0.0077561913 0.093634769 0.79450005
0.25570288 0.099565722 0.79200006
0.26559049 0.099314287 0.79000002
0.27222857 0.098304763 0.79400003
0.28463334 0.098902859 0.79275
0.24541621 0.10143951 0.79412502
0.25388446 0.10071154 0.79444444
0.26237333 0.10082237 0.79449999
0.28439999 0.10081904 0.79000002
-0.057911426 0.16656382 0.79224998
-0.060800005 0.171 0.79800004
-0.057173155 0.17575133 0.79380965
-0.056923181 0.18133208 0.79333341
-0.069159999 0.19912 0.79800004
-0.07332401 0.20630668 0.79700017
-0.064956844 0.20481057 0.79515386
-0.055302661 0.20326324 0.79400021
-0.045716297 0.20251948 0.79315799
-0.034193132 0.20179993 0.79400009
-0.025036953 0.20181184 0.79186672
-0.015454893 0.20208086 0.79336375
-0.073395945 0.21426019 0.79556531
-0.06560047 0.21494131 0.79295248
-0.058685716 0.21894285 0.79000002
-0.073073775 0.22508936 0.79772741
-0.064943492 0.22516906 0.79408902
-0.057331432 0.22691809 0.79000002
-0.074122295 0.23498572 0.79751736
-0.065195613 0.23516205 0.79473931
-0.056664482 0.23528455 0.79084635
-0.082840011 0.24396002 0.79800004
-0.073795617 0.24422728 0.79753864
-0.064949676 0.24485879 0.79417783
-0.0567136 0.24486282 0.79109091
-0.071260959 0.25168765 0.79600012
-0.065085359 0.25469762 0.79547632
-0.056612544 0.25389713 0.79166663
-0.061831623 0.26125947 0.79560006
-0.056401271 0.26520979 0.79311115
-0.041380953 0.26935238 0.79000002
-0.039123811 0.26935238 0.79000002
-0.052286264 0.27352712 0.79400009
-0.045056827 0.27585453 0.79294449
-0.034889061 0.27616727 0.79356772
-0.025251361 0.27629945 0.791852
-0.017366447 0.27785644 0.79015392
-0.050070208 0.28524792 0.79657149
-0.044661064 0.28513125 0.79483348
-0.034879297 0.28522062 0.79615778
-0.02499778 0.28556505 0.79533327
-0.015878431 0.28541809 0.79147077
-0.050160002 0.29336005 0.79800004
-0.045146674 0.29252076 0.79675013
-0.033763312 0.29296604 0.79782629
-0.025036717 0.29510564 0.79655546
-0.015586455 0.29500023 0.79366666
-0.0060190479 0.2976419 0.79000002
0.0012038096 0.29884574 0.79000002
-0.041476831 0.30905527 0.79666674
-0.034624767 0.30814573 0.7964707
-0.024320001 0.30231115 0.79799998
-0.014757143 0.30523267 0.79712504
-0.0051062633 0.3055405 0.79660612
0.0042102076 0.30645043 0.79184633
0.011661906 0.3088524 0.79000002
-0.05407086 0.3141652 0.79680008
-0.044914708 0.31495497 0.79521751
-0.034587216 0.31476843 0.79314297
-0.024940742 0.31438729 0.79355586
-0.015755726 0.31300896 0.79239035
-0.0057167695 0.31136948 0.79321748
0.00037714289 0.31076384 0.79200006
0.017304763 0.3122381 0.79000002
0.021819048 0.3122381 0.79000002
-0.051381234 0.32443023 0.79671443
-0.044439428 0.32518256 0.79362792
-0.034572445 0.32464886 0.79062247
-0.024671061 0.32487148 0.79046178
-0.019373808 0.32559285 0.79000002
-0.050467487 0.33507815 0.79600012
-0.044903744 0.33503607 0.79190701
-0.034908574 0.3345508 0.79249996
-0.024908319 0.334934 0.79178387
-0.018358095 0.33526099 0.79000008
-0.052100319 0.34598222 0.79666668
-0.045402192 0.34540555 0.7919513
-0.034572944 0.34495538 0.79395992
-0.024937322 0.34491223 0.79162812
-0.017680954 0.34496665 0.79000014
-0.050856669 0.35371715 0.79700005
-0.044588193 0.35337263 0.79349989
-0.035166565 0.35303617 0.79370368
-0.025070477 0.35251829 0.7912631
-0.018057143 0.35211432 0.79000002
-0.022638096 0.089321904 0.80300009
-0.018354287 0.088712379 0.80300009
0.0076666675 0.088933334 0.80500007
-0.023847936 0.093509838 0.80188906
-0.017671263 0.092391253 0.80058831
0.0070084357 0.092283405 0.80457157
0.0474727 0.096742541 0.8083334
0.054695606 0.09656141 0.80635482
0.063949525 0.098620951 0.80900002
0.1175181 0.098191842 0.80728573
0.12190001 0.09813334 0.80500019
0.24747217 0.098222867 0.80575001
0.25575665 0.097809806 0.80357152
0.26568919 0.097465403 0.80495244
0.2744804 0.097559199 0.80694753
0.28533831 0.09833239 0.80540007
0.29187334 0.09805651 0.80650008
0.05653524 0.10084801 0.80220002
0.063001275 0.10038222 0.80666673
0.11674476 0.100728 0.80860007
0.12143429 0.10145143 0.80700004
0.23920001 0.10120001 0.80500007
0.24233375 0.10132593 0.8046667
0.2966581 0.10153461 0.80766678
0.30125618 0.10324382 0.80900002
-0.060982861 0.17684953 0.80039996
-0.064397462 0.19881016 0.80341685
-0.054847497 0.19873896 0.80687511
-0.045272987 0.19739552 0.80563658
-0.03744635 0.19867049 0.80233335
-0.073789708 0.20215772 0.80039996
-0.061868578 0.20011809 0.80200005
-0.054994293 0.20011809 0.80200011
-0.045027778 0.20071396 0.80133343
-0.038486481 0.2006785 0.80180007
-0.076190472 0.22552381 0.80000001
-0.080761909 0.23847619 0.80000001
-0.078465044 0.23451975 0.80100006
-0.081008986 0.24433143 0.80028576
-0.078120634 0.24624763 0.80000019
-0.080997467 0.25216258 0.80233335
-0.075558335 0.25572848 0.80161291
-0.074640982 0.26455614 0.80307686
-0.065533049 0.26594844 0.80153853
-0.058920637 0.26768255 0.80000007
-0.073483288 0.27536076 0.80692315
-0.064869806 0.27512923 0.80348712
-0.057265647 0.27568889 0.80169231
-0.073952094 0.28407431 0.80884624
-0.065167829 0.28518018 0.80494434
-0.055582557 0.28508806 0.80173677
-0.064945161 0.29337773 0.80773693
-0.055550825 0.29459119 0.8044644
-0.04366032 0.2977289 0.80191678
-0.036972102 0.29711282 0.80088246
-0.083725072 0.30887538 0.80900002
-0.074734643 0.30740121 0.80654842
-0.065488987 0.30748814 0.80556005
-0.054168444 0.30679697 0.80468565
-0.045402616 0.30582258 0.80448842
-0.035446271 0.30493927 0.80352634
-0.025437746 0.30682433 0.80125916
-0.01664469 0.30687177 0.80000013
-0.009142857 0.30628571 0.80000001
-0.090916194 0.31435427 0.80900002
-0.085494809 0.31501639 0.8087222
-0.074993007 0.31514502 0.80452192
-0.064910717 0.31461474 0.80180961
-0.056581166 0.31356871 0.80044448
-0.047785398 0.31060702 0.80066669
-0.084133051 0.32547754 0.80782348
-0.075259447 0.32524487 0.8051818
-0.06497667 0.32487813 0.80263883
-0.057010703 0.32573885 0.80144823
-0.085055105 0.33483142 0.80452377
-0.075505197 0.3352401 0.80599988
-0.064929113 0.33448219 0.80332428
-0.055653546 0.33518556 0.80135137
-0.090916201 0.34209144 0.80900002
-0.085250922 0.34495789 0.80552948
-0.075119071 0.34497336 0.80597776
-0.065227173 0.34492058 0.80456102
-0.05677684 0.34494409 0.8015312
-0.084715173 0.35555249 0.80776459
-0.075293906 0.35557282 0.80743462
-0.064887576 0.35479632 0.80339998
-0.056421585 0.35510099 0.80126673
-0.085923538 0.36126426 0.80757153
-0.075294971 0.36110073 0.80671436
-0.068233341 0.36033335 0.80500007
-0.01092 0.088920005 0.81900007
-0.0093600005 0.088920005 0.81900007
-0.012260715 0.09164691 0.81725007
-0.0054509528 0.092662871 0.81762516
0.00062247628 0.093012199 0.81660002
0.015214548 0.094384424 0.81354553
0.02013143 0.094462864 0.81300002
0.046077713 0.094324194 0.81180012
0.055144764 0.093019381 0.81166673
0.064473957 0.095311455 0.81389678
0.071305722 0.097410008 0.81825012
0.097109996 0.097890005 0.81900018
0.10818334 0.097678088 0.81725013
0.11444763 0.096612953 0.81420004
0.12049143 0.095775239 0.81100005
0.23868001 0.097500004 0.81900007
0.24485059 0.097018823 0.81524009
0.25487411 0.096336767 0.81840008
0.26592627 0.094297819 0.81394112
0.27500668 0.095043816 0.81800008
0.28342718 0.097707145 0.81425011
0.29629529 0.097727634 0.81442863
0.30138224 0.098557472 0.81700009
0.062820323 0.10040953 0.81100005
0.1096781 0.10040953 0.81100005
0.11534223 0.10118192 0.81100005
0.24652669 0.10078095 0.81400001
0.29968384 0.10118192 0.81100005
0.30122858 0.10040953 0.81100005
-0.06264817 0.19671795 0.81642878
-0.05554086 0.19651733 0.81560022
-0.049432382 0.19618478 0.81100005
-0.078396671 0.27574 0.81099999
-0.076620199 0.28639886 0.81100005
-0.07271459 0.29395282 0.81223071
-0.065593809 0.29831672 0.81183332
-0.1121782 0.30675277 0.81900018
-0.10495349 0.30681333 0.81725818
-0.094780952 0.30664322 0.81417656
-0.085272841 0.30546674 0.81397319
-0.075071879 0.30351064 0.81523079
-0.06477017 0.30385152 0.81251532
-0.056383815 0.30466139 0.81099993
-0.11183251 0.31463253 0.81900018
-0.10483774 0.31527364 0.81599998
-0.095454089 0.31511056 0.81162876
-0.089596197 0.31049716 0.81100005
-0.11154002 0.32526004 0.81900018
-0.1050266 0.32524154 0.81667572
-0.095143273 0.32512513 0.81216687
-0.088978298 0.32455453 0.81099999
-0.11154002 0.33228004 0.81900012
-0.10518169 0.33501461 0.81805879
-0.095325537 0.33545473 0.81405282
-0.089596197 0.33057907 0.81100005
-0.11076002 0.34554002 0.81900012
-0.10528421 0.34442389 0.81764996
-0.09553086 0.34495422 0.81366688
-0.11076001 0.35178 0.81900007
-0.10470745 0.35451794 0.81748646
-0.095435984 0.35529262 0.81480479
-0.089633033 0.35621369 0.81133336
-0.1035831 0.36331481 0.81775016
-0.096021764 0.36236593 0.81373698
-0.014144287 0.088759042 0.82475001
-0.0060269847 0.087139793 0.82600003
0.013389524 0.089788571 0.82700002
-0.015752383 0.09136381 0.82700002
-0.0034441904 0.090606101 0.82300007
0.0029573811 0.09102381 0.82750005
0.014243812 0.09205424 0.82473338
0.021317145 0.092374295 0.82900006
0.067015715 0.09209761 0.82300001
0.075050026 0.0947579 0.82626313
0.085651956 0.092753336 0.82854557
0.095105134 0.093846023 0.82724005
0.10603031 0.094891258 0.82409108
0.11511701 0.093689397 0.82471436
0.12484676 0.094485298 0.82490915
0.13106096 0.095532387 0.82900006
0.24904951 0.092413329 0.82233334
0.25393161 0.093738101 0.82249999
0.26054287 0.094742857 0.82900006
0.27689037 0.093864225 0.82328582
0.28516102 0.094718717 0.82521057
0.29502478 0.096012518 0.82828587
0.30407754 0.096015587 0.82641184
0.30572474 0.10008381 0.82100004
-0.057610478 0.19399193 0.82300001
-0.11443619 0.29941526 0.82300001
-0.077186674 0.29929525 0.82700002
-0.12070667 0.30803713 0.82300001
-0.11541919 0.30430219 0.82306904
-0.10514157 0.30275276 0.82391667
-0.095370218 0.30329102 0.82564276
-0.084817365 0.30307218 0.82633346
-0.077729344 0.3021189 0.82440007
-0.12143001 0.31595621 0.82525003
-0.11689218 0.31513366 0.82204342
-0.12196487 0.32485715 0.8257274
-0.11654097 0.32462329 0.82216668
-0.12280944 0.33407217 0.82599998
-0.11598259 0.33544025 0.82281816
-0.12188414 0.3452048 0.82566661
-0.11580932 0.34479275 0.82267725
-0.12188478 0.35464475 0.82566667
-0.11575464 0.35518917 0.82382363
-0.10946666 0.35889429 0.82100004
-0.12139028 0.36452633 0.8276667
-0.1150127 0.36504161 0.82606256
-0.10829596 0.36483979 0.82250005
-0.11335049 0.37136823 0.82814294
-0.10764286 0.37085715 0.82500005
-0.022120239 0.08628834 0.83700001
-0.0019814286 0.08721143 0.83250004
0.0039262222 0.088032767 0.83526671
0.071914285 0.089493334 0.83900011
0.14699315 0.088642284 0.83700001
-0.02147143 0.090657145 0.83500004
-0.019085715 0.090657145 0.83500004
0.0055438098 0.09027715 0.83150005
0.01904 0.095200002 0.83300006
0.022638571 0.094916672 0.83400011
0.069185719 0.091452375 0.83500004
0.075457782 0.0913416 0.83400005
0.08171048 0.091258422 0.83566666
0.10554547 0.094840698 0.83426321
0.11486962 0.091630995 0.83336371
0.12601215 0.091882139 0.83349997
0.13600025 0.093844406 0.83507687
0.14462811 0.093263194 0.8332001
0.15037143 0.090222858 0.83100003
0.26385745 0.094403177 0.83533335
0.27966669 0.092689529 0.83900005
0.28402445 0.091839649 0.83390915
0.29573718 0.09301848 0.83340019
0.30275026 0.092322327 0.83411109
-0.11159581 0.29950097 0.83460009
-0.10468635 0.29945749 0.83700007
-0.094376475 0.29916573 0.83671433
-0.0845218 0.29842269 0.83633333
-0.078774862 0.29889566 0.83380002
-0.11186001 0.3014667 0.83300006
-0.10431289 0.30140692 0.8331334
-0.095031276 0.30094782 0.83266675
-0.085793331 0.30146453 0.83300012
-0.079142861 0.30074286 0.83100003
-0.12044191 0.3732124 0.83200002
-0.11752714 0.3731586 0.83100003
-0.021215999 0.084540576 0.84380001
-0.016684638 0.085608289 0.84317392
0.0064380961 0.087194286 0.84460002
0.016171429 0.088480823 0.8490001
0.047807354 0.089182049 0.84471446
0.054143813 0.088890485 0.84850007
0.065019526 0.088298805 0.842875
0.070483811 0.088104762 0.84100002
0.10754001 0.088942863 0.84900004
0.11658762 0.089248098 0.84425008
0.13936572 0.089706667 0.84100002
0.14388478 0.08922001 0.84400004
0.26735145 0.089920007 0.84300005
0.2797657 0.088942863 0.84900004
0.28475726 0.088629611 0.84463644
0.30388147 0.089518577 0.84300005
-0.019314285 0.090133332 0.84500003
0.012937143 0.090560004 0.8490001
0.026292471 0.092097491 0.8482728
0.030725716 0.091368571 0.84900004
0.046658836 0.091717042 0.84477782
0.054113336 0.092068575 0.84800005
0.064380959 0.091420963 0.84500009
0.10499796 0.091361031 0.84607702
0.11292952 0.090881906 0.84700006
0.12290286 0.091638103 0.8490001
0.13592239 0.090750948 0.847
0.25913334 0.093352385 0.84500003
0.26422733 0.092253849 0.84380013
0.2748794 0.092502363 0.84731585
0.28190395 0.091109417 0.8441112
0.29492152 0.090799153 0.84455556
0.30098096 0.090133332 0.84500003
-0.11095696 0.29791507 0.84180003
-0.10494196 0.29631397 0.84535319
-0.095443718 0.29736412 0.84519053
-0.086568564 0.29712459 0.84320003
-0.013043812 0.079893343 0.85600013
-0.0097828582 0.079893343 0.85600007
-0.013233061 0.083570614 0.85314292
-0.0065139397 0.083290741 0.85590911
0.0061729318 0.084648035 0.85552627
0.015184846 0.08523991 0.85278267
0.024682408 0.087666266 0.85484207
0.035493575 0.08812096 0.85674995
0.044242412 0.087507188 0.85393345
0.055176016 0.087022766 0.85352939
0.064280003 0.086246997 0.8543334
0.077581912 0.089016668 0.85749996
0.08520411 0.08786045 0.85505265
0.09552826 0.089271113 0.85733336
0.10419746 0.088185564 0.85475004
0.11041905 0.088496193 0.85250002
0.12546095 0.088335723 0.85358334
0.13610153 0.088783436 0.85369998
0.14500876 0.087024771 0.85346669
0.2767776 0.089178421 0.85644448
0.28174478 0.087391995 0.85600007
0.29907429 0.089885719 0.85800004
0.3036398 0.088923186 0.85399997
0.017830476 0.091583811 0.85100001
0.022288095 0.091178574 0.85100001
0.035069931 0.091496333 0.8534286
0.041479997 0.091093332 0.85400003
0.059043813 0.092136383 0.85159999
0.062509723 0.09408877 0.85459995
0.078445718 0.091520004 0.85800004
0.08461035 0.091123827 0.85428578
0.096096762 0.092186481 0.85659993
0.10049905 0.091583811 0.85100001
0.1257396 0.091236465 0.85100001
0.13251287 0.091178574 0.85100001
0.2745488 0.096244045 0.85099995
0.29663429 0.090773337 0.85100001
-0.10321497 0.29364932 0.85242862
-0.095408075 0.29532698 0.85411763
-0.087534599 0.29794708 0.85633332
-0.084784769 0.30000764 0.85600007
-0.012414286 0.079451434 0.86900002
-0.005764286 0.079131424 0.86550003
0.0032948572 0.079158857 0.86580002
-0.0052284519 0.084311917 0.86162508
0.0037651535 0.082230814 0.86141181
0.011513333 0.081412382 0.8635
0.026688572 0.084442854 0.86225009
0.034563683 0.084879242 0.86140013
0.04612048 0.08523763 0.86475003
0.05434341 0.084562175 0.86085725
0.074824847 0.085378557 0.86130452
0.084141903 0.083933823 0.86193746
0.095522806 0.086336441 0.86384231
0.10436497 0.085209534 0.86588895
0.1145358 0.087042466 0.86705899
0.12328405 0.087409519 0.86587501
0.14353874 0.086506352 0.86783338
0.26927239 0.086199999 0.86200005
0.27494222 0.086423971 0.86282367
0.28641063 0.086178735 0.86458343
0.2953707 0.087745801 0.86669242
0.30475783 0.088217147 0.86685717
0.31118476 0.087727614 0.86900002
0.055695243 0.09664762 0.86000007
0.062247619 0.09664762 0.86000001
0.075352386 0.090914279 0.86000001
0.095085725 0.090711109 0.86066669
0.11444096 0.090566672 0.86450005
0.27192384 0.090095237 0.86000001
0.2978743 0.090514287 0.86400002
0.31722432 0.092749357 0.8644166
0.32346052 0.092389636 0.86788887
-0.10096953 0.29546002 0.86900002
-0.093752198 0.29475296 0.86500007
-0.08728306 0.29477867 0.86460006
-0.01518041 0.078500412 0.8715716
-0.0078804763 0.078390002 0.87100005
0.0091457143 0.079817139 0.87300003
0.10460381 0.07969524 0.87166679
0.11224286 0.079817139 0.87300003
-0.020000001 0.080833338 0.87500006
-0.017752383 0.080986671 0.8736667
-0.0058066668 0.081293337 0.87100005
0.015287144 0.081696667 0.87533343
0.023607077 0.083230481 0.87642866
0.036196824 0.08352381 0.87700003
0.044730641 0.083623491 0.87516683
0.054078858 0.084116578 0.87620002
0.06421943 0.085960388 0.87800008
0.070239998 0.086127624 0.87800002
0.08885397 0.082744129 0.87466669
0.094700314 0.082518101 0.87226689
0.10631473 0.081619345 0.87315398
0.11545131 0.083095618 0.8725335
0.12362999 0.084776357 0.87416685
0.13414608 0.087031789 0.87556261
0.14269869 0.085088573 0.87420005
0.27852666 0.083972387 0.87300003
0.28416032 0.083713122 0.8736155
0.29555777 0.084379397 0.87172747
0.3042092 0.086200178 0.87490916
0.31558236 0.087130852 0.87385005
0.32440197 0.086798571 0.8735835
0.13250001 0.090000004 0.87500006
0.14000002 0.090000004 0.87500006
-0.092222236 0.28777781 0.87500012
-0.090000004 0.28833336 0.87500006
-0.094717212 0.29229024 0.87423539
-0.087822437 0.29199833 0.87544453
0.0055933329 0.077270485 0.88675004
0.014000433 0.076817669 0.88377279
0.023309335 0.078534484 0.88670009
0.035101239 0.077222578 0.88810009
0.044365715 0.078605369 0.88663644
0.054894291 0.079377785 0.88666677
0.061806668 0.07958667 0.88900006
0.085898191 0.07881698 0.88900006
0.10866286 0.079183817 0.88450003
0.11533397 0.079318099 0.8860001
0.12869334 0.07958667 0.88900006
0.13634558 0.0785679 0.88842869
0.14107524 0.079407625 0.88700002
0.018438095 0.080457143 0.88000005
0.024735063 0.081369363 0.8816365
0.034535237 0.081742406 0.88276935
0.043787431 0.081200771 0.88080007
0.055150103 0.082043946 0.88266677
0.065091431 0.083618417 0.88470829
0.074611247 0.083574101 0.8882001
0.085075505 0.081998795 0.88845462
0.09475176 0.081219055 0.88833344
0.10114286 0.080914289 0.88500005
0.11876509 0.08122921 0.8823334
0.12563144 0.08229889 0.88633341
0.13512129 0.082836732 0.88414288
0.14164273 0.082582325 0.88228577
0.30717435 0.083020084 0.88300008
0.31460139 0.083021052 0.88455564
0.32354194 0.082388304 0.8853572
0.026168097 0.077232853 0.89362502
0.0306 0.077348575 0.89250004
0.057134151 0.077548295 0.89342856
0.065692432 0.077018633 0.89430445
0.0758444 0.07820674 0.89561546
0.082773343 0.077110164 0.89300001
0.10659524 0.078443818 0.89533341
0.11515524 0.07762412 0.89566672
0.1248344 0.078322731 0.89393747
0.13376287 0.078039996 0.89460003
0.31854987 0.078926355 0.89433336
0.32330573 0.079765722 0.89100003
0.074578293 0.081543423 0.8919
0.10642857 0.080034286 0.89400005
0.11507238 0.080123812 0.89500004
0.30959621 0.082102865 0.89800006
0.31588 0.080034286 0.89400005
0.018060001 0.075680003 0.90300006
0.025676001 0.075123057 0.90460008
0.036219761 0.074162856 0.90549999
0.045330863 0.075848646 0.90505886
0.054307204 0.075308338 0.90684021
0.064446986 0.07308127 0.90633339
0.072992042 0.074240699 0.90454555
0.082377143 0.077228576 0.90100002
0.096567206 0.078135021 0.90711117
0.10321823 0.077475652 0.90535724
0.12785619 0.076370478 0.90100002
0.13043047 0.075512379 0.90100002
0.29591104 0.07853061 0.90471441
0.30156857 0.078951426 0.90600002
0.097082861 0.081585713 0.90412498
0.10148001 0.080839999 0.90300006
0.29532227 0.082690656 0.90329415
0.30491981 0.082845412 0.903
0.31243715 0.080907144 0.90375006
0.029563811 0.069561906 0.91300005
0.054372702 0.068831116 0.91100007
0.063266665 0.069333337 0.91000003
0.09704572 0.069942862 0.91800004
0.028770477 0.0723681 0.91550004
